# .PCD v.7 - Point Cloud Data file format
VERSION .7
FIELDS x y z rgb
SIZE 4 4 4 4
TYPE F F F F
COUNT 1 1 1 1
WIDTH 938
HEIGHT 1
VIEWPOINT 0 0 0 1 0 0 0
POINTS 938
DATA ascii
0.0067260861 -0.14300385 0.067126274 1.3096199e-39
-0.023254156 0.0075100213 -0.023659587 1.3096199e-39
-0.013399929 0.007508114 -0.023659587 1.3096199e-39
-0.0035475492 0.007508114 -0.023659587 1.3096199e-39
0.0073597133 0.007135734 -0.023359656 1.3096199e-39
-0.027193248 0.15727003 -0.023659587 1.3096199e-39
-0.04956755 -0.053047121 0.015840411 1.3096199e-39
-0.043943971 -0.053039264 0.016965389 1.3096199e-39
-0.062483698 0.096214786 -0.07665956 1.3096199e-39
-0.0037643909 -0.054398231 0.017173767 1.3096199e-39
0.016948909 -0.053050932 0.016126156 1.3096199e-39
0.025331527 -0.05507379 0.017840385 1.3096199e-39
0.054459453 -0.053040452 0.016673803 1.3096199e-39
0.040799111 -0.014745217 0.0043404102 1.3096199e-39
-0.044436097 0.18554719 -0.034159541 1.3096199e-39
-0.032954186 -0.063260451 0.01984036 1.3096199e-39
-0.023508877 -0.06367112 0.01984036 1.3096199e-39
-0.023198843 0.088407695 -0.072826266 1.3096199e-39
0.029330224 -0.062576011 0.01984036 1.3096199e-39
0.036859125 -0.063260451 0.01984036 1.3096199e-39
0.057392448 -0.063260451 0.01984036 1.3096199e-39
0.034805804 0.012712881 0.01984036 1.3096199e-39
-0.10322419 0.12655051 -0.083909631 1.3096199e-39
-0.094913572 0.12469511 -0.085492909 1.3096199e-39
0.048479617 -0.001045689 0.047090411 1.3096199e-39
0.076039612 -0.16234569 0.075090408 1.3096199e-39
0.086916298 -0.16232522 0.074840426 1.3096199e-39
0.097611517 -0.16287379 0.072840452 1.3096199e-39
-0.023535907 -0.07107798 0.023640275 1.3096199e-39
-0.014140844 -0.071490929 0.023840308 1.3096199e-39
0.099161059 -0.12290522 0.063340425 1.3096199e-39
-0.0034170449 -0.071485214 0.022840381 1.3096199e-39
0.0077890456 -0.071901597 0.023640394 1.3096199e-39
0.017357022 -0.071082547 0.024440408 1.3096199e-39
0.027078182 -0.071490929 0.023840308 1.3096199e-39
0.03633076 -0.071906172 0.024440408 1.3096199e-39
0.046000093 -0.071485214 0.022840381 1.3096199e-39
0.056981653 -0.072171569 0.0228405 1.3096199e-39
0.083355308 -0.08319284 0.04984045 1.3096199e-39
-0.018756092 0.12912431 -0.016159534 1.3096199e-39
0.086944461 -0.17076445 0.077440381 1.3096199e-39
0.097078204 -0.17114046 0.076840281 1.3096199e-39
0.10603246 -0.17104712 0.075840354 1.3096199e-39
0.11644387 -0.17116903 0.07717371 1.3096199e-39
-0.074924678 0.017113835 -0.026659727 1.3096199e-39
-0.05306527 0.017074145 -0.027159691 1.3096199e-39
-0.01713419 0.10483573 -0.053659558 1.3096199e-39
-0.023379952 0.01703383 -0.027659655 1.3096199e-39
-0.030808806 0.16894591 -0.027159572 1.3096199e-39
0.10503292 -0.13154951 0.065090418 1.3096199e-39
0.036126882 -0.081843041 0.027126193 1.3096199e-39
0.046003342 -0.081241682 0.025983334 1.3096199e-39
0.056476742 -0.082353786 0.026590466 1.3096199e-39
0.066453964 -0.081245489 0.026554704 1.3096199e-39
0.015306741 0.068421453 0.027507186 1.3096199e-39
-0.012814194 0.12000906 -0.011659622 1.3096199e-39
0.049752474 -0.040847123 0.01284039 1.3096199e-39
-0.013363719 -0.14022808 0.06684041 1.3096199e-39
-0.015449435 0.097262397 -0.053159595 1.3096199e-39
0.016822577 0.0079250708 -0.023359656 1.3096199e-39
0.11905628 -0.15187949 0.094340444 1.3096199e-39
-0.073971361 0.099100903 -0.076159537 1.3096199e-39
-0.024698973 0.098195642 -0.076604068 1.3096199e-39
-0.102451 0.13898373 -0.089159608 1.3096199e-39
-0.064144045 0.090178907 -0.073492885 1.3096199e-39
-0.053146273 0.089005277 -0.072992861 1.3096199e-39
0.062626749 -0.035481408 0.057840466 1.3096199e-39
-0.044269621 0.0888201 -0.073588133 1.3096199e-39
0.00605914 -0.061207123 0.01984036 1.3096199e-39
0.016325802 -0.061207123 0.01984036 1.3096199e-39
0.10952199 -0.12401855 0.085840464 1.3096199e-39
-0.0086132586 0.077061445 -0.047159553 1.3096199e-39
0.077577829 -0.070875689 0.047173738 1.3096199e-39
-0.04025802 0.12939383 -0.083659589 1.3096199e-39
-0.06212756 0.081303358 -0.070159614 1.3096199e-39
-0.042053908 0.080048755 -0.070159554 1.3096199e-39
-0.033898979 0.081303358 -0.070159614 1.3096199e-39
-0.02420029 0.079707563 -0.070759594 1.3096199e-39
0.11328962 -0.13285284 0.087840438 1.3096199e-39
-0.0022532344 0.067832872 -0.044159532 1.3096199e-39
0.12543499 -0.14276078 0.1175071 1.3096199e-39
0.090912461 -0.093287125 0.075840354 1.3096199e-39
-0.020129889 0.10931051 -0.055409551 1.3096199e-39
-0.052874237 0.15855859 -0.093826294 1.3096199e-39
0.0059558153 -0.078743786 0.027590513 1.3096199e-39
0.0022343695 0.083775744 -0.00015962124 1.3096199e-39
0.039146751 -0.0022414029 0.027340412 1.3096199e-39
0.014046282 0.047999069 -0.013909578 1.3096199e-39
0.089640081 -0.17791569 0.079840422 1.3096199e-39
0.09831056 -0.17791569 0.079840422 1.3096199e-39
0.11211818 -0.11396712 0.10684037 1.3096199e-39
-0.034177691 0.13668557 -0.063159585 1.3096199e-39
0.011845797 0.066392884 0.0058404207 1.3096199e-39
0.12603244 -0.15976331 0.096840382 1.3096199e-39
0.050560087 -0.019570932 0.032840371 1.3096199e-39
0.020813406 0.030819543 -0.006159544 1.3096199e-39
0.05524388 -0.15569285 0.072840452 1.3096199e-39
0.066015333 -0.15569285 0.072840452 1.3096199e-39
0.076786757 -0.15569285 0.072840452 1.3096199e-39
-0.1030018 0.17242526 -0.097159564 1.3096199e-39
0.055914015 -0.03108941 0.036440492 1.3096199e-39
0.011918187 0.032301448 -0.032159567 1.3096199e-39
-0.059070379 0.17242526 -0.097159564 1.3096199e-39
-0.013712287 -0.065308072 0.022840381 1.3096199e-39
0.0068781674 -0.065308072 0.022840381 1.3096199e-39
-0.0031859577 0.096744001 -0.003159523 1.3096199e-39
0.025409609 -0.065308072 0.022840381 1.3096199e-39
0.053112477 -0.0041061714 0.048840404 1.3096199e-39
0.0083934069 0.059843346 -0.014659643 1.3096199e-39
-0.037798017 0.12431097 -0.081159592 1.3096199e-39
-0.091815144 0.024842404 -0.028159618 1.3096199e-39
-0.08789137 0.024842404 -0.028159618 1.3096199e-39
-0.041778952 0.075362399 -0.065659583 1.3096199e-39
0.10296771 -0.12512141 0.064840436 1.3096199e-39
-0.033485621 0.07609193 -0.067159593 1.3096199e-39
-0.087834209 0.11369954 -0.078159571 1.3096199e-39
-0.014798641 0.12703605 -0.013159513 1.3096199e-39
-0.09150508 0.016399741 -0.025759578 1.3096199e-39
-0.048990399 0.17815098 -0.05115962 1.3096199e-39
-0.044660866 0.17598908 -0.052159548 1.3096199e-39
0.10916451 -0.11100331 0.10684037 1.3096199e-39
-0.073895425 0.0073058009 -0.022588015 1.3096199e-39
-0.053292304 0.007578589 -0.02265954 1.3096199e-39
-0.11929896 0.043701448 -0.035159588 1.3096199e-39
-0.11540183 0.043701448 -0.035159588 1.3096199e-39
-0.066807538 0.20799477 -0.061159611 1.3096199e-39
0.046938002 -0.091908455 0.033640504 1.3096199e-39
0.056794375 -0.092304267 0.032840371 1.3096199e-39
0.066949934 -0.092320777 0.033507109 1.3096199e-39
0.0063838959 0.046630025 -0.035159588 1.3096199e-39
-0.011538953 -0.15138426 0.072840452 1.3096199e-39
-0.0025401115 -0.1532014 0.074040413 1.3096199e-39
0.0072610378 -0.15365569 0.074340343 1.3096199e-39
-0.10564753 0.13629003 -0.086159587 1.3096199e-39
0.016801983 -0.15433475 0.07384038 1.3096199e-39
0.027424455 -0.15410998 0.074640393 1.3096199e-39
0.037461072 -0.15365569 0.074340343 1.3096199e-39
0.046626747 -0.15353855 0.072840452 1.3096199e-39
0.016241997 -0.0020585433 -0.019159555 1.3096199e-39
0.041203886 0.010509066 0.046840429 1.3096199e-39
0.02415821 -0.0020585433 -0.019159555 1.3096199e-39
0.0023886561 0.073145255 -0.019159555 1.3096199e-39
0.057272941 -0.10331713 0.035840511 1.3096199e-39
0.067069441 -0.10222672 0.036554813 1.3096199e-39
0.025972128 0.047207482 0.035507083 1.3096199e-39
0.011918187 0.036210023 -0.032159567 1.3096199e-39
-0.0042406321 -0.063660838 0.022840381 1.3096199e-39
0.018202931 -0.06427855 0.022840381 1.3096199e-39
0.027525812 -0.16257855 0.077840328 1.3096199e-39
0.03654483 -0.16249284 0.076840281 1.3096199e-39
0.045993626 -0.16304484 0.078240395 1.3096199e-39
0.016343862 -0.011716649 -0.014659643 1.3096199e-39
0.057216465 -0.16197512 0.075840354 1.3096199e-39
0.067152441 -0.16240713 0.075840354 1.3096199e-39
-0.018756121 0.13706337 -0.016159534 1.3096199e-39
0.11740959 -0.16292179 0.076840401 1.3096199e-39
-0.050822765 0.1886424 -0.055159569 1.3096199e-39
-0.072996646 0.078166485 -0.065873742 1.3096199e-39
-0.03414163 -0.071910739 0.025240421 1.3096199e-39
-0.06314823 0.077440217 -0.067159534 1.3096199e-39
-0.052699596 0.078074768 -0.066492915 1.3096199e-39
-0.021530747 0.076721132 -0.067159534 1.3096199e-39
0.064988673 -0.071906552 0.025040388 1.3096199e-39
0.057125837 -0.17141284 0.079840422 1.3096199e-39
0.065073729 -0.1706903 0.079840422 1.3096199e-39
0.076963902 -0.17132331 0.078840375 1.3096199e-39
0.011737227 0.054051928 -0.013159633 1.3096199e-39
-0.08462283 0.017832883 -0.024730921 1.3096199e-39
0.124322 -0.17141284 0.079840422 1.3096199e-39
0.021192461 0.04075288 0.01284039 1.3096199e-39
0.017075658 0.017188437 -0.025826216 1.3096199e-39
-0.073013276 0.069577262 -0.062359571 1.3096199e-39
-0.063354164 0.068952873 -0.064159572 1.3096199e-39
-0.054949969 0.069412693 -0.063559592 1.3096199e-39
-0.011940867 -0.07978712 0.028340459 1.3096199e-39
-0.042613477 0.067682162 -0.063034594 1.3096199e-39
-0.003662765 -0.07978712 0.028340459 1.3096199e-39
-0.032214016 0.068655372 -0.063559592 1.3096199e-39
-0.023045331 0.068522736 -0.062659562 1.3096199e-39
0.017032474 -0.07978712 0.028340459 1.3096199e-39
0.026495934 -0.081864268 0.028840542 1.3096199e-39
0.072386742 -0.07980141 0.029840469 1.3096199e-39
-0.093310744 0.10678689 -0.075016677 1.3096199e-39
0.088623911 -0.092838548 0.056340456 1.3096199e-39
-0.025458187 0.10690755 -0.074359536 1.3096199e-39
-0.063774675 0.0076695457 -0.021409512 1.3096199e-39
0.054585785 -0.042807121 0.016340375 1.3096199e-39
-0.043167144 0.0080542117 -0.021559477 1.3096199e-39
-0.034510404 0.0077252537 -0.020659566 1.3096199e-39
0.022799134 0.0077252537 -0.020659566 1.3096199e-39
0.034688354 -0.0018172786 0.0061737299 1.3096199e-39
0.021466762 0.059396684 0.032840371 1.3096199e-39
-0.091409475 0.097986206 -0.071659565 1.3096199e-39
-0.08339265 0.098721653 -0.073959589 1.3096199e-39
0.020813406 0.034827165 -0.006159544 1.3096199e-39
-0.0324426 0.0003163144 -0.019159555 1.3096199e-39
-0.0086132586 0.08861573 -0.047159553 1.3096199e-39
-0.022994667 -0.00012949854 -0.01990962 1.3096199e-39
0.075057238 -0.06316141 0.046340466 1.3096199e-39
-0.073514849 0.088670969 -0.071159601 1.3096199e-39
0.0001924634 -0.16024712 0.075840354 1.3096199e-39
-0.006567508 0.077636689 -0.043159485 1.3096199e-39
-0.10851422 0.12803288 -0.081159592 1.3096199e-39
0.088434368 -0.082500458 0.076840401 1.3096199e-39
-0.024661332 0.11721717 -0.05390954 1.3096199e-39
-0.05436036 0.16670413 -0.093559563 1.3096199e-39
0.038120717 0.0062551051 0.025507092 1.3096199e-39
0.018108636 -0.16924521 0.079840422 1.3096199e-39
0.026779145 -0.16924521 0.079840422 1.3096199e-39
0.035449594 -0.16924521 0.079840422 1.3096199e-39
0.046287686 -0.16924521 0.079840422 1.3096199e-39
0.093975335 -0.093378551 0.079840422 1.3096199e-39
-0.039521813 -0.077729024 0.029840469 1.3096199e-39
-0.033304662 -0.077729024 0.029840469 1.3096199e-39
-0.020179629 -0.079110615 0.029840469 1.3096199e-39
0.076636255 -0.053440455 0.06684041 1.3096199e-39
-0.038740873 0.14847289 -0.064159572 1.3096199e-39
0.11621076 -0.14166427 0.095840454 1.3096199e-39
-0.029569447 0.11050907 -0.075159609 1.3096199e-39
0.025633901 0.037081927 0.017090321 1.3096199e-39
0.069405049 -0.051810168 0.045640469 1.3096199e-39
-0.0043860674 0.087272882 -0.023016691 1.3096199e-39
-0.013860852 -0.086069979 0.032840371 1.3096199e-39
-0.0034704208 -0.086069979 0.032840371 1.3096199e-39
0.01731059 -0.086069979 0.032840371 1.3096199e-39
0.071341038 -0.086069979 0.032840371 1.3096199e-39
-0.016018957 0.12554146 -0.035159588 1.3096199e-39
-0.05404976 0.1770383 -0.073659539 1.3096199e-39
-0.082710415 0.0018995479 -0.019159555 1.3096199e-39
-0.07281515 0.0018995479 -0.019159555 1.3096199e-39
-0.060940892 0.0018995479 -0.019159555 1.3096199e-39
-0.055003732 0.0018995479 -0.019159555 1.3096199e-39
0.1051639 -0.11094426 0.085840464 1.3096199e-39
-0.0050761104 -0.14707568 0.072840452 1.3096199e-39
-0.013443738 0.0018995479 -0.019159555 1.3096199e-39
-0.0035484731 0.0018995479 -0.019159555 1.3096199e-39
0.038009614 -0.14707568 0.072840452 1.3096199e-39
0.0063467324 0.0018995479 -0.019159555 1.3096199e-39
-0.080946594 0.092594787 -0.070159614 1.3096199e-39
-0.0034170449 -0.057071883 0.022840381 1.3096199e-39
-0.032649428 -0.0058395006 -0.016159534 1.3096199e-39
-0.022071809 -0.004802838 -0.01540947 1.3096199e-39
0.044592947 0.0075057298 0.049090385 1.3096199e-39
0.11788389 -0.15459125 0.07717371 1.3096199e-39
-0.011067539 0.10847764 -0.026659608 1.3096199e-39
-0.063687533 0.085530028 -0.067159534 1.3096199e-39
-0.056137055 0.085530028 -0.067159593 1.3096199e-39
0.063284844 -0.065301411 0.026340485 1.3096199e-39
0.021192461 0.046872884 0.01284039 1.3096199e-39
0.10739246 -0.10290426 0.10784042 1.3096199e-39
-0.0098862648 0.098734483 -0.024159551 1.3096199e-39
0.087695956 -0.063701093 0.095173836 1.3096199e-39
0.016584843 -0.17395379 0.08384037 1.3096199e-39
0.02528581 -0.17395379 0.08384037 1.3096199e-39
-0.094271332 0.11397669 -0.07665956 1.3096199e-39
0.036161989 -0.17395379 0.08384037 1.3096199e-39
0.047038168 -0.17395379 0.08384037 1.3096199e-39
0.12995055 -0.15059951 0.1228404 1.3096199e-39
0.068790555 -0.17395379 0.08384037 1.3096199e-39
-0.059527546 0.18914907 -0.075159609 1.3096199e-39
0.052718192 -0.036681406 0.015840411 1.3096199e-39
-0.0433698 -0.082745023 0.032840371 1.3096199e-39
-0.032221437 -0.08311107 0.03341198 1.3096199e-39
0.092411518 -0.071774743 0.098840356 1.3096199e-39
-0.11205634 0.10650374 -0.072359622 1.3096199e-39
-0.020610392 0.12972717 -0.033659577 1.3096199e-39
0.086647719 -0.18176903 0.085840464 1.3096199e-39
-0.0391047 0.16868049 -0.045159578 1.3096199e-39
0.037188679 0.016783357 0.046340466 1.3096199e-39
-0.033410579 -0.092807882 0.036640406 1.3096199e-39
-0.013335824 -0.092392519 0.03650713 1.3096199e-39
0.018596262 -0.092353791 0.034840465 1.3096199e-39
0.027558148 -0.092809029 0.036440492 1.3096199e-39
0.037052929 -0.092372358 0.03559041 1.3096199e-39
0.061232477 -0.031100456 0.061840415 1.3096199e-39
-0.063833684 -0.0029028952 -0.014445305 1.3096199e-39
-0.052680701 -0.0025930256 -0.014959693 1.3096199e-39
-0.043426573 -0.002321884 -0.015409708 1.3096199e-39
0.029527694 0.021171927 0.022840381 1.3096199e-39
-0.032952666 0.15810259 -0.042959571 1.3096199e-39
-0.013137549 -0.0038104504 -0.015409589 1.3096199e-39
-0.0028780401 -0.0038547367 -0.016159534 1.3096199e-39
0.0070457757 -0.0038547367 -0.016159534 1.3096199e-39
-0.01943323 0.14729859 -0.014659643 1.3096199e-39
0.046754748 -0.10204826 0.038640499 1.3096199e-39
0.077255279 -0.10216331 0.037840486 1.3096199e-39
-0.092824668 0.087649062 -0.065659583 1.3096199e-39
-0.0833188 0.087040126 -0.067159593 1.3096199e-39
0.068742931 -0.039559502 0.064840436 1.3096199e-39
-0.018384665 0.087417647 -0.067159593 1.3096199e-39
-0.082478672 -0.010970298 -0.013159633 1.3096199e-39
-0.032744676 -0.011556648 -0.011659622 1.3096199e-39
0.0067189336 -0.16311038 0.079040408 1.3096199e-39
-0.023839176 -0.011173978 -0.011959553 1.3096199e-39
-0.11023417 0.12489955 -0.078159571 1.3096199e-39
0.017117381 -0.16224331 0.079040408 1.3096199e-39
0.0054443777 -0.011595219 -0.012409568 1.3096199e-39
0.026869416 -0.012036458 -0.013159633 1.3096199e-39
-0.016577035 0.13785191 -0.012159586 1.3096199e-39
0.056352466 -0.11128712 0.03984046 1.3096199e-39
0.010662287 0.027644947 -0.026159525 1.3096199e-39
-0.092407912 0.078590989 -0.062959611 1.3096199e-39
-0.083304673 0.07878001 -0.064909518 1.3096199e-39
0.00096008182 0.090267166 0.0028403997 1.3096199e-39
-0.015066177 0.077835932 -0.062959611 1.3096199e-39
0.0071587861 -0.17105347 0.08384037 1.3096199e-39
-0.11138085 0.11780624 -0.076159537 1.3096199e-39
-0.10371295 0.11774462 -0.076493025 1.3096199e-39
0.055192471 -0.01012712 0.054840446 1.3096199e-39
0.049894154 -0.031733975 0.016840458 1.3096199e-39
0.023005813 0.017571934 -0.02115953 1.3096199e-39
-0.013399005 0.069294795 -0.061659575 1.3096199e-39
-0.10392776 0.1071779 -0.072784662 1.3096199e-39
-0.00022277236 0.056815743 -0.034159541 1.3096199e-39
0.045977265 -0.18077855 0.086840391 1.3096199e-39
0.055045813 -0.18068141 0.085840464 1.3096199e-39
0.066699147 -0.17968711 0.086840391 1.3096199e-39
0.076506764 -0.18077856 0.086840391 1.3096199e-39
0.096654683 -0.18133919 0.085173845 1.3096199e-39
-0.039693236 -0.090268075 0.034840345 1.3096199e-39
-0.044611335 0.14831035 -0.084826231 1.3096199e-39
0.090616286 -0.10154331 0.063340425 1.3096199e-39
0.08709529 -0.18742427 0.087840557 1.3096199e-39
0.029267699 -0.00077759475 -0.014659524 1.3096199e-39
-0.042363703 0.13877289 -0.083159566 1.3096199e-39
0.01721248 -0.098695695 0.038340449 1.3096199e-39
-0.058464676 0.20009954 -0.055159569 1.3096199e-39
0.082461029 -0.09865284 0.036840439 1.3096199e-39
0.096608669 -0.11227793 0.064673662 1.3096199e-39
0.023198158 0.027173832 -0.0021595955 1.3096199e-39
0.061032474 -0.061167121 0.026840448 1.3096199e-39
-0.014138967 -0.0096433125 -0.013159633 1.3096199e-39
-0.0041866004 -0.0096433088 -0.013159633 1.3096199e-39
0.12207246 -0.13462427 0.11884046 1.3096199e-39
0.033035308 -0.0095604546 -0.011659622 1.3096199e-39
0.005530864 0.067194164 -0.01415956 1.3096199e-39
-0.039300859 0.13049954 -0.078159571 1.3096199e-39
0.071672469 -0.043753788 0.068840384 1.3096199e-39
0.11561534 -0.13325283 0.094840407 1.3096199e-39
0.0084781945 -0.017462358 -0.010159612 1.3096199e-39
0.016462952 -0.017462358 -0.010159612 1.3096199e-39
0.055192471 -0.005887121 0.054840446 1.3096199e-39
-0.031897098 0.11918336 -0.075492918 1.3096199e-39
0.097068667 -0.093469977 0.08384037 1.3096199e-39
-0.081999928 0.071263358 -0.061159611 1.3096199e-39
-0.0047309399 0.09660925 -0.020959496 1.3096199e-39
-0.05654946 0.18578716 -0.073659539 1.3096199e-39
0.10080579 -0.10222808 0.085840464 1.3096199e-39
-0.063034683 0.064160019 -0.057409525 1.3096199e-39
-0.034081817 0.064061448 -0.05815959 1.3096199e-39
0.083249599 -0.063058548 0.072840452 1.3096199e-39
-0.022653252 0.064061448 -0.05815959 1.3096199e-39
0.048114359 -0.013289027 0.033840418 1.3096199e-39
-0.012767524 -0.14728713 0.075840354 1.3096199e-39
-0.035399914 0.16550525 -0.042159557 1.3096199e-39
0.1187239 -0.12322427 0.11484039 1.3096199e-39
0.043942958 0.015015736 0.050840378 1.3096199e-39
0.0010915101 0.079505265 -0.016159534 1.3096199e-39
0.11251247 -0.14728713 0.075840354 1.3096199e-39
0.085948676 -0.071690932 0.077840328 1.3096199e-39
0.053261042 -0.02148141 0.036840439 1.3096199e-39
-0.094833225 0.094024315 -0.067159593 1.3096199e-39
-0.086338967 0.093080506 -0.067159593 1.3096199e-39
-0.059616119 0.17906621 -0.092659593 1.3096199e-39
0.065321326 -0.033802677 0.066507101 1.3096199e-39
0.033609599 0.017336369 0.026507139 1.3096199e-39
0.10454485 -0.092694744 0.10844052 1.3096199e-39
-0.042522937 0.15793955 -0.064159632 1.3096199e-39
-0.027010411 0.14666145 -0.036659598 1.3096199e-39
0.02407819 0.047192879 0.015840411 1.3096199e-39
0.077493399 -0.11361188 0.045340419 1.3096199e-39
0.0064681768 -0.02325331 -0.0054095984 1.3096199e-39
0.016601056 -0.023263309 -0.0056595802 1.3096199e-39
0.035689861 0.02676975 0.047126293 1.3096199e-39
-0.023447543 -0.084707439 0.034173727 1.3096199e-39
-0.052364379 0.065462723 -0.057159543 1.3096199e-39
0.0065105855 -0.084009022 0.033840418 1.3096199e-39
0.033358186 0.0036995411 0.007840395 1.3096199e-39
0.0064606667 0.076955914 0.0090404749 1.3096199e-39
-0.010960877 0.066169068 -0.056659579 1.3096199e-39
-0.063048512 -0.033187121 -0.0026595592 1.3096199e-39
0.077249616 -0.083346173 0.035840511 1.3096199e-39
-0.010225177 0.11737621 -0.0039095879 1.3096199e-39
0.073516279 -0.056805216 0.050840378 1.3096199e-39
-0.063138336 0.057016365 -0.053492785 1.3096199e-39
-0.024561793 -0.092432834 0.038340449 1.3096199e-39
-0.04270038 0.057285726 -0.055159569 1.3096199e-39
-0.0036760867 -0.092432834 0.038340449 1.3096199e-39
-0.033628494 0.056813836 -0.05515945 1.3096199e-39
0.0071705878 -0.092408076 0.037340641 1.3096199e-39
-0.024073571 0.056808747 -0.055159569 1.3096199e-39
-0.012923121 0.056893833 -0.054492831 1.3096199e-39
-0.06120947 0.20796014 -0.055759549 1.3096199e-39
-0.0582228 -0.041169025 -0.00015962124 1.3096199e-39
0.07818225 -0.092404582 0.037173748 1.3096199e-39
-0.11352625 0.09707287 -0.065826178 1.3096199e-39
0.097733408 -0.079929024 0.10550714 1.3096199e-39
-0.10360852 0.096936688 -0.06665951 1.3096199e-39
0.045793533 -0.1911587 0.093554735 1.3096199e-39
0.075791717 -0.19060217 0.093040466 1.3096199e-39
-0.0094208717 0.10779671 -0.0011595488 1.3096199e-39
-0.083418459 -0.0037218779 -0.013909578 1.3096199e-39
-0.048586577 0.17047288 -0.067159593 1.3096199e-39
-0.074673563 -0.0024134666 -0.01415956 1.3096199e-39
0.05951342 -0.05291855 0.025340319 1.3096199e-39
0.032972783 -0.0043353736 -0.013159513 1.3096199e-39
-0.063464671 0.048077457 -0.051359534 1.3096199e-39
-0.051616102 0.0486186 -0.051659584 1.3096199e-39
-0.043236107 0.047716692 -0.05115962 1.3096199e-39
-0.033549249 0.048077457 -0.051359534 1.3096199e-39
0.022889614 -0.10082998 0.03984046 1.3096199e-39
-0.012061507 0.048395425 -0.050826192 1.3096199e-39
-0.0031053126 0.04775542 -0.050826192 1.3096199e-39
-0.053985685 0.19693862 -0.052659631 1.3096199e-39
-0.10268536 0.087484643 -0.062659562 1.3096199e-39
-0.056993276 0.17404716 -0.090659618 1.3096199e-39
0.04780069 -0.20002046 0.096173763 1.3096199e-39
-0.016020864 0.087886199 -0.064159572 1.3096199e-39
-0.052919894 -0.011529028 -0.011159539 1.3096199e-39
-0.043617696 -0.010863632 -0.011159658 1.3096199e-39
0.11327913 -0.12668997 0.095340371 1.3096199e-39
-0.0049389601 0.076404303 -0.038159609 1.3096199e-39
-0.029049426 -0.11144713 0.043840408 1.3096199e-39
0.045398831 -0.022989977 0.017173767 1.3096199e-39
0.029723883 0.039684311 0.043840408 1.3096199e-39
0.015534371 0.026369072 -0.022159576 1.3096199e-39
0.069955617 -0.070830613 0.032840371 1.3096199e-39
-0.0010961294 0.06728147 -0.033659458 1.3096199e-39
-0.02752468 0.11677669 -0.071659565 1.3096199e-39
0.10910103 -0.13199569 0.072840452 1.3096199e-39
0.0085124671 -0.17869285 0.087840438 1.3096199e-39
0.017243892 -0.17869285 0.087840557 1.3096199e-39
0.028158158 -0.17869285 0.087840438 1.3096199e-39
0.036889583 -0.18087569 0.087840438 1.3096199e-39
0.007212013 -0.030166648 -0.0024096966 1.3096199e-39
-0.061190397 0.16015288 -0.11015958 1.3096199e-39
0.069291502 -0.12862617 0.050840378 1.3096199e-39
0.090415329 -0.12862617 0.050840378 1.3096199e-39
0.094640076 -0.12862617 0.050840378 1.3096199e-39
-0.064954549 0.187557 -0.092992902 1.3096199e-39
0.02238676 0.035410024 -0.00015962124 1.3096199e-39
-0.020039946 0.098050982 -0.065659583 1.3096199e-39
-0.0074703991 0.087604299 -0.04115963 1.3096199e-39
-0.039300859 0.13796622 -0.078159571 1.3096199e-39
-0.018938959 -0.098738551 0.03984046 1.3096199e-39
0.010341048 -0.098738551 0.03984046 1.3096199e-39
-0.022291332 0.04967542 -0.050826311 1.3096199e-39
0.039621025 -0.098738551 0.03984046 1.3096199e-39
-0.026290745 0.12750907 -0.051826239 1.3096199e-39
0.011120707 0.039641127 -0.024159551 1.3096199e-39
-0.073365659 -0.009477593 -0.010159492 1.3096199e-39
-0.063384682 -0.0094775967 -0.010159612 1.3096199e-39
-0.032138973 0.15217574 -0.038159609 1.3096199e-39
0.080132455 -0.071609981 0.056340456 1.3096199e-39
0.042318195 -0.10724902 0.043840408 1.3096199e-39
-0.047155172 -0.057229027 0.0063403845 1.3096199e-39
0.075902939 -0.10724902 0.043840408 1.3096199e-39
-0.0081542134 0.10628621 -0.022159576 1.3096199e-39
-0.033289433 -0.017271884 -0.006159544 1.3096199e-39
0.020813406 -0.017271884 -0.006159544 1.3096199e-39
0.026824862 -0.017271884 -0.006159544 1.3096199e-39
0.085301012 -0.082247123 0.057840466 1.3096199e-39
0.055937231 -0.11577664 0.046840429 1.3096199e-39
0.064007044 -0.042832516 0.045840502 1.3096199e-39
0.029595792 0.0097381175 0.0070903301 1.3096199e-39
0.044821769 -0.0032978356 0.035715461 1.3096199e-39
-0.081053227 0.16195859 -0.11015958 1.3096199e-39
-0.076238066 0.16075478 -0.11015952 1.3096199e-39
-0.011907518 0.098738596 -0.044159651 1.3096199e-39
-0.075658947 0.064455733 -0.055159569 1.3096199e-39
0.0010915101 0.087444305 -0.016159534 1.3096199e-39
-0.030918628 0.1385294 -0.054159403 1.3096199e-39
0.057582945 -0.022391248 0.066173792 1.3096199e-39
0.029998183 0.026862718 0.025173783 1.3096199e-39
0.038972467 -0.010164265 0.014340401 1.3096199e-39
-0.04631421 0.16740622 -0.064159572 1.3096199e-39
0.10927054 -0.11942173 0.096507072 1.3096199e-39
-0.023948133 -0.10395341 0.045640469 1.3096199e-39
0.0054866076 -0.10395341 0.045640469 1.3096199e-39
0.015814543 -0.10561322 0.045040369 1.3096199e-39
0.017128974 0.0574551 0.01617384 1.3096199e-39
0.035373807 -0.10391226 0.044440508 1.3096199e-39
0.014214039 0.034592248 -0.022159576 1.3096199e-39
-0.080712944 -0.014600135 -0.006159544 1.3096199e-39
-0.063713759 -0.015232362 -0.0054095984 1.3096199e-39
-0.022604197 -0.016234268 -0.0054095984 1.3096199e-39
-0.013584197 -0.015232362 -0.0054095984 1.3096199e-39
-0.0040338337 -0.015668835 -0.006159544 1.3096199e-39
-0.01334852 -0.11332103 0.048440456 1.3096199e-39
-0.062699944 0.19731005 -0.072659612 1.3096199e-39
0.016160846 -0.11332103 0.048440456 1.3096199e-39
0.12423816 -0.16391188 0.085173726 1.3096199e-39
0.037238955 -0.11332103 0.048440456 1.3096199e-39
0.047184199 -0.11433347 0.045840502 1.3096199e-39
-0.049793273 0.18720432 -0.045659542 1.3096199e-39
0.066404849 -0.11368109 0.047007084 1.3096199e-39
0.087074369 -0.11372776 0.048173666 1.3096199e-39
-0.062805623 -0.023157597 -0.0031596422 1.3096199e-39
-0.033191144 -0.023585785 -0.0037596226 1.3096199e-39
-0.023276895 -0.022808261 -0.0043596029 1.3096199e-39
-0.013371348 -0.0235595 -0.0031596422 1.3096199e-39
-0.0032068193 -0.022808261 -0.0043596029 1.3096199e-39
0.025917679 -0.023190454 -0.0039095879 1.3096199e-39
0.035661012 -0.023157597 -0.0031596422 1.3096199e-39
-0.012301236 0.12744811 -0.0037596226 1.3096199e-39
-0.043082654 0.17737086 -0.044159532 1.3096199e-39
0.067523897 -0.12224141 0.04984045 1.3096199e-39
0.075969607 -0.12224141 0.04984045 1.3096199e-39
0.086412787 -0.12225729 0.050173879 1.3096199e-39
0.11368009 -0.11212522 0.11684036 1.3096199e-39
0.094640076 -0.12228903 0.050840378 1.3096199e-39
-0.084444851 0.067505643 -0.05515945 1.3096199e-39
-0.0046540201 0.066881254 -0.054159522 1.3096199e-39
-0.054561585 -0.031972017 -0.00058817863 1.3096199e-39
0.011346757 -0.18346235 0.091840386 1.3096199e-39
0.017918199 -0.18346235 0.091840386 1.3096199e-39
0.026680082 -0.18346235 0.091840386 1.3096199e-39
0.059537232 -0.18346235 0.091840386 1.3096199e-39
0.063918173 -0.18346235 0.091840386 1.3096199e-39
0.036304027 -0.032592699 -0.00187397 1.3096199e-39
-0.083460361 0.15677004 -0.10587394 1.3096199e-39
-0.073190004 0.15622485 -0.10549301 1.3096199e-39
-0.0074703991 0.093415737 -0.04115963 1.3096199e-39
-0.083596617 0.056736208 -0.051909566 1.3096199e-39
-0.0737001 0.057602964 -0.053159475 1.3096199e-39
-0.052989632 0.056528389 -0.053016663 1.3096199e-39
0.11131626 -0.14323379 0.079840422 1.3096199e-39
-0.0026953816 0.056627877 -0.052784443 1.3096199e-39
-0.054071099 0.20655541 -0.052492857 1.3096199e-39
0.016622543 -0.19184522 0.096440434 1.3096199e-39
0.025755316 -0.1924976 0.094340444 1.3096199e-39
0.036182284 -0.19244522 0.09384048 1.3096199e-39
-0.05285421 0.14754431 -0.10199291 1.3096199e-39
0.12095246 -0.12810427 0.1228404 1.3096199e-39
-0.073807567 0.048472881 -0.050159454 1.3096199e-39
-0.031568289 -0.10137169 0.043840528 1.3096199e-39
0.044535339 -0.016224265 0.015840411 1.3096199e-39
0.027048618 -0.10310331 0.045340538 1.3096199e-39
-0.052485019 -0.051820457 0.0061738491 1.3096199e-39
-0.11280486 0.08788012 -0.061759591 1.3096199e-39
0.026297212 -0.2003303 0.098840356 1.3096199e-39
0.037316293 -0.2017995 0.098840356 1.3096199e-39
-0.00081202388 0.099182725 0.0038404465 1.3096199e-39
-0.053171128 0.13920501 -0.10053456 1.3096199e-39
-0.082279533 0.039564304 -0.044759512 1.3096199e-39
-0.032739699 0.038180739 -0.046034575 1.3096199e-39
0.094272465 -0.086978555 0.085840464 1.3096199e-39
-0.011455178 0.038750976 -0.045159459 1.3096199e-39
-0.0023989379 0.038297169 -0.044909596 1.3096199e-39
-0.072338253 0.17636646 -0.11203456 1.3096199e-39
-0.10348848 0.07761097 -0.056659579 1.3096199e-39
0.062251508 -0.035795692 0.046840429 1.3096199e-39
-0.071472794 -0.022185691 -0.0039097071 1.3096199e-39
-0.025213242 0.13978717 -0.032159567 1.3096199e-39
-0.044214457 0.12877215 -0.095784605 1.3096199e-39
-0.019428492 -0.12017664 0.050840378 1.3096199e-39
-0.015203714 -0.12017664 0.050840378 1.3096199e-39
0.0059200823 -0.12017664 0.050840378 1.3096199e-39
0.031268656 -0.12017664 0.050840378 1.3096199e-39
0.037605792 -0.12017664 0.050840378 1.3096199e-39
-0.082257062 0.16677384 -0.11015952 1.3096199e-39
0.046055347 -0.12017664 0.050840378 1.3096199e-39
-0.073830396 0.16737573 -0.11015952 1.3096199e-39
0.05661723 -0.12017665 0.050840378 1.3096199e-39
-0.063718408 0.16701458 -0.11015952 1.3096199e-39
-0.093318552 0.068387702 -0.054302335 1.3096199e-39
0.025292456 0.017102405 -0.014659524 1.3096199e-39
-0.0028780103 0.093398601 -0.016159534 1.3096199e-39
-0.04979226 0.15734431 -0.083159566 1.3096199e-39
0.08227247 -0.056567121 0.075840354 1.3096199e-39
-0.070314199 -0.029077597 -0.00015962124 1.3096199e-39
-0.033032298 -0.030085217 -0.00015962124 1.3096199e-39
-0.024635464 -0.030421089 -0.00015962124 1.3096199e-39
-0.013887554 -0.029077597 -0.00015962124 1.3096199e-39
-0.0027110279 -0.030457281 -0.0011595488 1.3096199e-39
0.016958177 -0.031147122 -0.0016596317 1.3096199e-39
0.026718646 -0.03111998 -0.00090968609 1.3096199e-39
0.04253912 -0.031092837 -0.00015962124 1.3096199e-39
0.058038145 -0.04323823 0.027507186 1.3096199e-39
-0.06280753 0.1578532 -0.10715961 1.3096199e-39
0.027668625 0.0082709789 -0.013159513 1.3096199e-39
0.037979126 -0.0026293397 0.015173674 1.3096199e-39
0.12562674 -0.1516414 0.10617375 1.3096199e-39
0.010198176 -0.18815759 0.094840407 1.3096199e-39
0.0089452267 0.047346026 -0.023359537 1.3096199e-39
0.056318194 -0.19035378 0.094840407 1.3096199e-39
0.065352947 -0.19027522 0.094090462 1.3096199e-39
-0.062165171 0.14932574 -0.10415959 1.3096199e-39
-0.084047586 0.049752876 -0.050159454 1.3096199e-39
0.078012466 -0.063124262 0.056340456 1.3096199e-39
0.0024895966 0.076358601 -0.010159612 1.3096199e-39
0.11664578 -0.15002617 0.08384037 1.3096199e-39
-0.11998084 0.09025383 -0.061159611 1.3096199e-39
0.013074368 -0.19739188 0.098840356 1.3096199e-39
0.056393445 -0.19837759 0.097840428 1.3096199e-39
0.024005771 0.027886219 0.0058404207 1.3096199e-39
-0.068424672 0.14065574 -0.10015959 1.3096199e-39
-0.062950402 0.14065574 -0.10015959 1.3096199e-39
-0.062714666 0.043605737 -0.044909477 1.3096199e-39
-0.034458965 0.12782274 -0.072826266 1.3096199e-39
-0.053060383 0.043605737 -0.044909477 1.3096199e-39
0.091718197 -0.1073576 0.046840429 1.3096199e-39
0.059009135 -0.031575218 0.047090411 1.3096199e-39
-0.053119451 0.16830859 -0.083909631 1.3096199e-39
0.10048389 -0.12122427 0.072840452 1.3096199e-39
0.027568191 0.01785145 0.0070903301 1.3096199e-39
-0.051798016 -0.017224267 -0.0051596165 1.3096199e-39
0.010210872 0.057893202 -0.003159523 1.3096199e-39
-0.058363706 0.19609953 -0.070159614 1.3096199e-39
-0.085796088 0.16968051 -0.1081596 1.3096199e-39
-0.015584707 0.10727669 -0.043159485 1.3096199e-39
-0.035049886 0.14764157 -0.055270553 1.3096199e-39
0.014325768 0.047501452 -0.00015962124 1.3096199e-39
-0.053118974 0.18721606 -0.065659583 1.3096199e-39
-0.064161807 0.21449955 -0.051492929 1.3096199e-39
0.052169621 -0.012989976 0.03984046 1.3096199e-39
0.027232468 -0.037052836 0.0028403997 1.3096199e-39
0.041379124 -0.037052836 0.0028403997 1.3096199e-39
0.10683057 -0.11129093 0.094840407 1.3096199e-39
0.013036281 0.067009389 0.01617384 1.3096199e-39
-0.013613254 0.1172875 -0.023159504 1.3096199e-39
-0.088121802 0.0047300234 -0.035159588 1.3096199e-39
-0.029664665 0.1567186 -0.035159588 1.3096199e-39
-0.027438968 0.15704717 -0.033659577 1.3096199e-39
-0.093095511 0.045742601 -0.044759512 1.3096199e-39
0.12575534 -0.13276522 0.12584043 1.3096199e-39
-0.083716124 0.046250023 -0.047159553 1.3096199e-39
0.047746748 0.0070328787 0.057840466 1.3096199e-39
-0.073319942 0.045074791 -0.046159506 1.3096199e-39
-0.013728946 -0.10365283 0.046090484 1.3096199e-39
-0.032433242 0.044487163 -0.045659542 1.3096199e-39
-0.023810983 0.044839747 -0.045959473 1.3096199e-39
0.089914352 -0.080445215 0.085840464 1.3096199e-39
-0.017010391 0.044487163 -0.045659542 1.3096199e-39
-0.021211833 0.11888003 -0.044909477 1.3096199e-39
-0.11217704 0.083109066 -0.05815959 1.3096199e-39
-0.10646275 0.083109066 -0.05815959 1.3096199e-39
-0.072757691 -0.015611693 -0.0049595833 1.3096199e-39
-0.042007536 -0.015196647 -0.0046596527 1.3096199e-39
-0.073755652 0.13618097 -0.095409572 1.3096199e-39
0.039861679 0.0083198696 0.035507083 1.3096199e-39
-0.062731355 0.13581574 -0.097159505 1.3096199e-39
0.12849787 -0.14193156 0.12817383 1.3096199e-39
0.036169142 -0.01361236 -0.0031596422 1.3096199e-39
-0.063591629 0.037376888 -0.043559551 1.3096199e-39
-0.023809463 -0.11419798 0.04924047 1.3096199e-39
-0.052965671 0.03703098 -0.043159485 1.3096199e-39
-0.028253257 0.12458716 -0.070159614 1.3096199e-39
-0.003818959 -0.1137595 0.048840404 1.3096199e-39
0.0057182014 -0.11419493 0.04924047 1.3096199e-39
-0.022263736 0.037083365 -0.042659521 1.3096199e-39
0.02681458 -0.11419798 0.04924047 1.3096199e-39
-0.089415163 0.17329955 -0.1081596 1.3096199e-39
-0.082257062 0.17399669 -0.11015952 1.3096199e-39
-0.078557998 0.17329955 -0.1081596 1.3096199e-39
-0.06540373 0.17399669 -0.11015952 1.3096199e-39
0.10978675 -0.10088141 0.11484039 1.3096199e-39
0.094640076 -0.11383951 0.050840378 1.3096199e-39
0.078693032 -0.049649023 0.07624042 1.3096199e-39
0.0047676861 0.086560503 0.0098404884 1.3096199e-39
-0.053471357 -0.02309569 -0.0016596317 1.3096199e-39
-0.043766081 -0.02306474 -0.00090968609 1.3096199e-39
0.0069657862 -0.17470045 0.091840386 1.3096199e-39
-0.053905398 0.12748407 -0.093034625 1.3096199e-39
0.043119133 -0.023091882 -0.0016596317 1.3096199e-39
-0.092082769 0.16642624 -0.10665965 1.3096199e-39
0.027033895 0.039040975 0.026590347 1.3096199e-39
-0.043899268 -0.03298644 0.0036975145 1.3096199e-39
-0.050854594 0.17914779 -0.065159559 1.3096199e-39
-0.093077987 0.15670772 -0.10173094 1.3096199e-39
0.067226768 -0.13179189 0.056840539 1.3096199e-39
-0.055888504 0.15724908 -0.10199291 1.3096199e-39
-0.033200413 0.16726002 -0.035909653 1.3096199e-39
0.076838166 -0.13061398 0.056040406 1.3096199e-39
0.0862858 -0.13167378 0.054840565 1.3096199e-39
0.097118199 -0.13105284 0.056340456 1.3096199e-39
-0.091727525 0.057432875 -0.050159454 1.3096199e-39
0.038232476 0.019552879 0.054840446 1.3096199e-39
0.045299143 0.018139549 0.054840565 1.3096199e-39
-0.052606016 -0.04306839 0.0050070286 1.3096199e-39
0.036558151 -0.043071881 0.004840374 1.3096199e-39
-0.0084208548 0.10895288 0.0058404207 1.3096199e-39
-0.0057456195 0.10769098 0.0043404102 1.3096199e-39
-0.072074205 0.14795478 -0.10015959 1.3096199e-39
-0.0037193894 -0.10253447 0.046411991 1.3096199e-39
0.087031752 -0.10261593 0.046715379 1.3096199e-39
0.099862933 -0.11268331 0.074840307 1.3096199e-39
0.066967338 -0.062781215 0.035840392 1.3096199e-39
-0.074208409 0.03834635 -0.043730974 1.3096199e-39
0.052699149 -0.0012337863 0.061840415 1.3096199e-39
-0.043199539 0.038084306 -0.044159532 1.3096199e-39
-0.016461819 0.11445288 -0.042659521 1.3096199e-39
-0.11429277 0.077936202 -0.054409504 1.3096199e-39
0.019615918 0.028563038 -0.016159534 1.3096199e-39
0.10595962 -0.12353617 0.076090336 1.3096199e-39
-0.011273742 0.078012407 -0.05390954 1.3096199e-39
0.075167686 -0.072239503 0.037840486 1.3096199e-39
-0.069458991 0.029490024 -0.04115963 1.3096199e-39
-0.063647538 0.029490024 -0.04115963 1.3096199e-39
-0.056544691 0.030135736 -0.04115963 1.3096199e-39
0.014325798 0.055562399 -0.00015962124 1.3096199e-39
-0.032653242 0.031427167 -0.04115963 1.3096199e-39
-0.026841819 0.031427167 -0.04115963 1.3096199e-39
-0.0035960972 0.031427175 -0.04115963 1.3096199e-39
0.054261506 -0.033306643 0.02559042 1.3096199e-39
0.0060895979 0.031427167 -0.04115963 1.3096199e-39
-0.11228815 0.068815097 -0.051159501 1.3096199e-39
-0.10284671 0.068032876 -0.052873731 1.3096199e-39
-0.044247568 0.11955288 -0.090359509 1.3096199e-39
-0.037801832 0.12030716 -0.092159629 1.3096199e-39
-0.066806287 0.19461317 -0.0918262 1.3096199e-39
0.089489609 -0.0930776 0.06684041 1.3096199e-39
-0.023302794 0.10860431 -0.064759552 1.3096199e-39
-0.10324755 0.061272874 -0.050159574 1.3096199e-39
0.073766738 -0.052509978 0.056340456 1.3096199e-39
-0.041722894 0.1478952 -0.075445235 1.3096199e-39
-0.026447535 0.13615288 -0.050159574 1.3096199e-39
-0.044864684 0.11166717 -0.089159608 1.3096199e-39
-0.017432332 0.097850025 -0.061159611 1.3096199e-39
-0.090321809 0.14977954 -0.10015959 1.3096199e-39
-0.083022743 0.14977956 -0.10015953 1.3096199e-39
-0.0067294538 0.086724296 -0.034159541 1.3096199e-39
0.086009592 -0.13751569 0.057840466 1.3096199e-39
0.094512463 -0.13751569 0.057840466 1.3096199e-39
-0.03675139 0.13738112 -0.071992934 1.3096199e-39
-0.056255132 0.17822717 -0.083826303 1.3096199e-39
-0.040881813 0.042724311 -0.044159532 1.3096199e-39
0.0020553172 0.093341455 0.0098403692 1.3096199e-39
0.087177873 -0.082349978 0.065173745 1.3096199e-39
0.098965794 -0.093652837 0.091840386 1.3096199e-39
-0.05945608 0.17005478 -0.10665959 1.3096199e-39
0.035182476 0.0081657395 0.013590455 1.3096199e-39
-0.037801832 0.12398715 -0.092159629 1.3096199e-39
0.10380641 -0.10324903 0.095173836 1.3096199e-39
0.036112458 -0.12460712 0.054840446 1.3096199e-39
0.046352476 -0.12465855 0.055840492 1.3096199e-39
0.056778193 -0.12468427 0.056340456 1.3096199e-39
-0.0095018148 0.099967167 -0.036659598 1.3096199e-39
0.11012009 -0.13914998 0.08384037 1.3096199e-39
-0.05205515 -0.037024263 0.0038404465 1.3096199e-39
-0.033409923 -0.035978071 0.0050903559 1.3096199e-39
-0.02193898 -0.034989025 0.0043404102 1.3096199e-39
-0.012759149 -0.035384644 0.0046403408 1.3096199e-39
-0.0027113557 -0.034989025 0.0043404102 1.3096199e-39
0.0068584979 -0.035648391 0.0048404932 1.3096199e-39
0.017523915 -0.035999503 0.0043404102 1.3096199e-39
0.017728657 0.040096685 0.0063403845 1.3096199e-39
-0.047817081 0.17761004 -0.061159611 1.3096199e-39
-0.042769074 -0.043402165 0.0082404613 1.3096199e-39
0.056121022 -0.021081407 0.046340466 1.3096199e-39
0.0063174367 -0.043418929 0.0074404478 1.3096199e-39
0.046302199 -0.043382358 0.0090404749 1.3096199e-39
-0.084188133 0.14542182 -0.096759558 1.3096199e-39
-0.076154858 0.14435796 -0.097159505 1.3096199e-39
0.034815341 0.017933831 0.034173727 1.3096199e-39
0.076651454 -0.14273393 0.063126087 1.3096199e-39
0.087685823 -0.14374046 0.061840415 1.3096199e-39
0.097925782 -0.14288712 0.061840415 1.3096199e-39
0.052699149 0.0051662102 0.061840415 1.3096199e-39
0.0065257847 0.068275735 -0.0031596422 1.3096199e-39
0.0016095936 0.046587169 -0.044159412 1.3096199e-39
-0.066607505 0.18362717 -0.11015958 1.3096199e-39
-0.1215739 0.084679857 -0.056159496 1.3096199e-39
-0.0068475306 0.10729192 -0.016159534 1.3096199e-39
0.075712949 -0.041438073 0.076090336 1.3096199e-39
-0.040140271 0.15847923 -0.056159496 1.3096199e-39
0.074118167 -0.065281406 0.036840439 1.3096199e-39
0.1072458 -0.15292902 0.064840555 1.3096199e-39
0.02383247 0.048366211 0.026840448 1.3096199e-39
0.0041524768 0.03723859 -0.04115963 1.3096199e-39
-0.12289169 0.075918868 -0.051302314 1.3096199e-39
-0.05050084 0.16223288 -0.078159571 1.3096199e-39
-0.074070424 0.12704659 -0.089759588 1.3096199e-39
-0.06340012 0.12762213 -0.09152317 1.3096199e-39
-0.022785634 0.13801734 -0.024659514 1.3096199e-39
0.10736543 -0.16126007 0.067240477 1.3096199e-39
-0.073782414 0.026493452 -0.035759568 1.3096199e-39
0.055203885 -0.011649027 0.06684041 1.3096199e-39
-0.052147597 0.027410984 -0.035659552 1.3096199e-39
-0.012550384 -0.12300369 0.056640387 1.3096199e-39
-0.0023546517 -0.12252569 0.055590391 1.3096199e-39
-0.033206105 0.02609431 -0.035909653 1.3096199e-39
0.0067410171 -0.12324522 0.055840492 1.3096199e-39
0.017219603 -0.12153712 0.057090521 1.3096199e-39
-0.10040465 0.16583383 -0.1016596 1.3096199e-39
-0.013879389 0.028067976 -0.035588145 1.3096199e-39
0.026542932 -0.12324522 0.055840492 1.3096199e-39
-0.057265311 0.16615541 -0.10282624 1.3096199e-39
0.097115308 -0.12255855 0.056340456 1.3096199e-39
0.0094324648 0.078938022 0.017640471 1.3096199e-39
-0.072527558 0.21487288 -0.050159574 1.3096199e-39
-0.05716756 0.21487288 -0.050159574 1.3096199e-39
-0.019994199 0.1280043 -0.022159576 1.3096199e-39
-0.094380885 0.019187167 -0.033159494 1.3096199e-39
0.029779136 0.030303352 0.032840371 1.3096199e-39
-0.11358252 0.05860503 -0.044534564 1.3096199e-39
-0.10278276 0.056762405 -0.045159459 1.3096199e-39
0.11907944 -0.12066427 0.12417376 1.3096199e-39
-0.038053244 0.1446424 -0.073159575 1.3096199e-39
-0.070887595 0.10896622 -0.08365953 1.3096199e-39
-0.033949763 -0.040954422 0.0085070133 1.3096199e-39
0.085244864 -0.092635691 0.047340393 1.3096199e-39
-0.052474827 0.10869701 -0.08515954 1.3096199e-39
-0.013059378 -0.042568646 0.0090404749 1.3096199e-39
-0.042678684 0.10821074 -0.085284531 1.3096199e-39
-0.0027694404 -0.043026168 0.0068404675 1.3096199e-39
-0.033479661 0.10857122 -0.083284616 1.3096199e-39
0.015733063 -0.042588454 0.0082403421 1.3096199e-39
-0.089704663 0.0088500232 -0.032159567 1.3096199e-39
0.025232434 -0.043005217 0.007840395 1.3096199e-39
0.026553303 -0.14213559 0.063284755 1.3096199e-39
0.065044701 -0.053381816 0.035554767 1.3096199e-39
-0.046353161 0.14665438 -0.095445275 1.3096199e-39
-0.10323414 0.046695746 -0.043159604 1.3096199e-39
0.033651501 -0.00306236 -0.0031596422 1.3096199e-39
-0.051032335 0.19750147 -0.043159485 1.3096199e-39
-0.064081818 0.18596621 -0.1081596 1.3096199e-39
0.029249609 -0.20226426 0.10284042 1.3096199e-39
-0.034076095 0.10049079 -0.081159532 1.3096199e-39
0.069312453 -0.03928712 0.075840354 1.3096199e-39
0.10434297 -0.11388712 0.077840328 1.3096199e-39
-0.013065964 0.087535754 -0.054159522 1.3096199e-39
-0.04516542 0.13714409 -0.093034625 1.3096199e-39
-0.10626468 0.039175734 -0.04115963 1.3096199e-39
-0.092704684 0.039175734 -0.04115963 1.3096199e-39
-0.046213239 0.18833573 -0.04115963 1.3096199e-39
-0.063182026 0.1782417 -0.10478455 1.3096199e-39
0.00079247355 0.089712873 0.01284039 1.3096199e-39
-0.091777831 0.12852545 -0.089759588 1.3096199e-39
0.0023724735 0.066625267 -0.023659587 1.3096199e-39
0.11460581 -0.15967378 0.068840384 1.3096199e-39
-0.025632948 0.11735986 -0.065159619 1.3096199e-39
-0.11860755 0.068952873 -0.050159574 1.3096199e-39
0.11012009 -0.13262427 0.08384037 1.3096199e-39
0.12042674 -0.14294808 0.10884047 1.3096199e-39
0.12431246 -0.14530045 0.11084044 1.3096199e-39
-0.063321799 0.11905003 -0.089159608 1.3096199e-39
-0.052247554 0.11905003 -0.089159548 1.3096199e-39
0.005299747 0.056871608 -0.022826195 1.3096199e-39
-0.0096475184 -0.12901284 0.057840466 1.3096199e-39
-0.0032703876 -0.12901284 0.057840466 1.3096199e-39
0.0031067431 -0.12901284 0.057840466 1.3096199e-39
-0.10127041 0.15890335 -0.10015959 1.3096199e-39
0.026489615 -0.12901284 0.057840466 1.3096199e-39
0.036055326 -0.13007569 0.057840466 1.3096199e-39
-0.12157181 0.059040025 -0.044909477 1.3096199e-39
-0.097196132 0.059730008 -0.047159553 1.3096199e-39
0.00034961104 0.059915736 -0.045659542 1.3096199e-39
-0.017401814 0.1246005 -0.019159555 1.3096199e-39
-0.060542315 0.18686573 -0.083909631 1.3096199e-39
0.08709532 -0.07391569 0.087840438 1.3096199e-39
-0.022205681 0.12642145 -0.044159651 1.3096199e-39
-0.063851327 0.10104908 -0.081159592 1.3096199e-39
-0.054546624 0.10197954 -0.081159592 1.3096199e-39
-0.010150403 -0.049058549 0.0098403692 1.3096199e-39
-0.044473261 0.10171954 -0.082659602 1.3096199e-39
-0.0040475428 -0.049058549 0.0098403692 1.3096199e-39
0.0061239004 -0.049058549 0.0098404884 1.3096199e-39
0.014261037 -0.049058549 0.0098403692 1.3096199e-39
0.028501034 -0.049058549 0.0098403692 1.3096199e-39
0.083559126 -0.071647123 0.0653404 1.3096199e-39
0.047878832 -0.021279503 0.025173783 1.3096199e-39
-0.035804659 0.15716144 -0.050659657 1.3096199e-39
0.11899817 -0.13264826 0.10764039 1.3096199e-39
-0.056543738 0.1943043 -0.062659621 1.3096199e-39
0.10243818 -0.093721405 0.094840407 1.3096199e-39
0.06739819 -0.041892834 0.056340456 1.3096199e-39
0.078364521 -0.079271249 0.044840455 1.3096199e-39
-0.061339051 0.024305262 -0.034159541 1.3096199e-39
-0.036221832 0.17460717 -0.033659577 1.3096199e-39
0.085043222 -0.062283948 0.085173726 1.3096199e-39
0.055235624 -0.013344899 0.046840429 1.3096199e-39
-0.0027675331 -0.13350046 0.061840534 1.3096199e-39
-0.10117134 0.1541205 -0.097159564 1.3096199e-39
0.024965793 -0.13350046 0.061840415 1.3096199e-39
0.037765801 -0.13350046 0.061840415 1.3096199e-39
0.099632472 -0.13350046 0.061840415 1.3096199e-39
0.0048521459 0.076648757 -0.003159523 1.3096199e-39
0.037763894 -0.0076547414 0.022840381 1.3096199e-39
0.066973418 -0.03200585 0.078507066 1.3096199e-39
-0.043598861 0.16782227 -0.054302454 1.3096199e-39
-0.0701361 0.20675193 -0.065659583 1.3096199e-39
0.018436253 0.05846335 0.024840355 1.3096199e-39
-0.046213239 0.19414715 -0.04115963 1.3096199e-39
-0.032521099 -0.052540693 0.015465379 1.3096199e-39
-0.022533268 -0.053062357 0.014840484 1.3096199e-39
-0.053797275 0.097372308 -0.07755959 1.3096199e-39
-0.012827963 -0.054233517 0.014697671 1.3096199e-39
-0.044278622 0.097521782 -0.078159571 1.3096199e-39
-0.034323096 0.096277341 -0.078159571 1.3096199e-39
0.036739141 -0.053064264 0.014840364 1.3096199e-39
0.046958178 -0.053064264 0.014840484 1.3096199e-39
0.0010477006 0.072333828 -0.025159597 1.3096199e-39
-0.02294904 0.14727971 -0.024302363 1.3096199e-39
0.087346762 -0.15308522 0.06684041 1.3096199e-39
-0.10391995 0.037000507 -0.037159562 1.3096199e-39
0.095918179 -0.15308522 0.06684041 1.3096199e-39
-0.094310433 0.035604306 -0.038159609 1.3096199e-39
-0.086538941 0.035604306 -0.038159609 1.3096199e-39
0.11460581 -0.1532338 0.068840384 1.3096199e-39
-0.027380854 0.12385954 -0.064159572 1.3096199e-39
0.0083367825 0.03762573 -0.037409544 1.3096199e-39
-0.042606264 -0.063262992 0.018507123 1.3096199e-39
-0.033478677 0.088089377 -0.0748263 1.3096199e-39
0.047628641 -0.063268073 0.018507004 1.3096199e-39
0.084017187 -0.052140452 0.08384037 1.3096199e-39
-0.094043463 0.028269619 -0.033445358 1.3096199e-39
0.044846743 -0.022840455 0.0043404102 1.3096199e-39
-0.04330039 0.028104305 -0.035159588 1.3096199e-39
-0.023988247 0.02765502 -0.034784555 1.3096199e-39
-0.0026085079 0.026209071 -0.034659624 1.3096199e-39
0.0077478886 0.027328879 -0.035159469 1.3096199e-39
-0.041851997 -0.070789345 0.01984036 1.3096199e-39
-0.12415609 0.06743288 -0.047159553 1.3096199e-39
-0.092231303 0.11824717 -0.083659589 1.3096199e-39
-0.083135635 0.11675955 -0.084159553 1.3096199e-39
-0.072862059 0.11716813 -0.085159481 1.3096199e-39
-0.062447518 0.11715861 -0.086159587 1.3096199e-39
-0.053807527 0.11592431 -0.086159587 1.3096199e-39
-0.04084751 0.11592431 -0.086159587 1.3096199e-39
-0.033381343 0.11624955 -0.084409595 1.3096199e-39
0.064503163 -0.022012122 0.075715303 1.3096199e-39
0.045732468 -0.032865215 0.0073404312 1.3096199e-39
-0.014145344 -0.13207823 0.061840534 1.3096199e-39
0.0076034367 -0.1314114 0.062590361 1.3096199e-39
0.016139597 -0.1314114 0.062590361 1.3096199e-39
-0.0037161112 0.018621452 -0.032159567 1.3096199e-39
0.0060553253 0.018621452 -0.032159567 1.3096199e-39
0.04629913 -0.13136712 0.061840415 1.3096199e-39
0.056112468 -0.1317938 0.061840415 1.3096199e-39
0.11328962 -0.14376712 0.087840438 1.3096199e-39
-0.080599934 0.10942335 -0.081159592 1.3096199e-39
-0.062796086 0.10905764 -0.083159626 1.3096199e-39
-0.02439037 -0.040921405 0.0098403692 1.3096199e-39
-0.003207922 -0.13968256 0.065040469 1.3096199e-39
0.015385211 -0.14143455 0.065640569 1.3096199e-39
-0.10259345 0.14741595 -0.09228456 1.3096199e-39
-0.094135672 0.14670669 -0.093409598 1.3096199e-39
