# .PCD v.7 - Point Cloud Data file format
VERSION .7
FIELDS x y z rgb
SIZE 4 4 4 4
TYPE F F F F
COUNT 1 1 1 1
WIDTH 952
HEIGHT 1
VIEWPOINT 0 0 0 1 0 0 0
POINTS 952
DATA ascii
-0.0099374056 0.12269071 -0.029779911 3.497641e-42
0.047152758 0.074493855 0.028886795 3.497641e-42
-0.0037183166 0.12517834 -0.02978003 3.497641e-42
0.0062321424 0.12517834 -0.02978003 3.497641e-42
-0.055101216 0.044558525 -0.0029615164 3.497641e-42
-0.012532651 -0.065459609 -0.023946643 3.497641e-42
0.044733524 0.064200699 0.019220114 3.497641e-42
0.044567347 -0.11531311 0.032220125 3.497641e-42
-0.0071669221 -0.065587401 -0.024779916 3.497641e-42
-0.079264998 -0.14820454 0.00022006035 3.497641e-42
0.019504488 -0.065032572 -0.023416281 3.497641e-42
-0.024728298 0.034764469 -0.011922717 3.497641e-42
0.054990232 0.16480124 0.032220125 3.497641e-42
0.035440564 0.044403017 -0.0027797222 3.497641e-42
0.016555965 0.21783832 -0.024779916 3.497641e-42
-0.051272631 0.13426402 0.00022006035 3.497641e-42
-0.046183109 0.13426405 0.00022029877 3.497641e-42
0.030397654 -0.14423673 0.007220149 3.497641e-42
0.031681657 0.03778401 -0.0097799301 3.497641e-42
0.017426372 0.21224502 -0.029779911 3.497641e-42
0.027659595 0.034680575 -0.012279749 3.497641e-42
0.04617244 0.15279481 0.020220041 3.497641e-42
0.023230851 0.21183041 -0.029779911 3.497641e-42
0.055959761 -0.20350072 0.05422008 3.497641e-42
-0.073238373 -0.055633113 0.0062198639 3.497641e-42
-0.035165668 -0.16435859 -0.014779925 3.497641e-42
0.024092793 0.025847018 -0.021279931 3.497641e-42
0.058531642 -0.032365963 0.029720068 3.497641e-42
0.019883513 0.022783637 -0.023779869 3.497641e-42
-0.03456974 0.12297833 -0.0097798109 3.497641e-42
-0.0010530353 0.016256154 -0.029779911 3.497641e-42
0.0062321424 0.01572305 -0.02978003 3.497641e-42
0.052155018 -0.21387978 0.043220043 3.497641e-42
0.014938772 0.015723079 -0.02978003 3.497641e-42
0.017611325 -0.16291177 -0.014779925 3.497641e-42
0.05847168 0.073258787 0.049220085 3.497641e-42
0.028803229 0.1281018 -0.0047798157 3.497641e-42
0.029685915 -0.054624826 0.0077201128 3.497641e-42
-0.073126674 0.034115165 0.0097202063 3.497641e-42
0.055431545 0.064615518 0.039583564 3.497641e-42
0.029142499 -0.065121606 -0.0022799969 3.497641e-42
-0.0012307167 0.10403356 -0.029779911 3.497641e-42
-0.055188298 0.025021046 -0.0001128912 3.497641e-42
0.025139213 -0.074980244 -0.012279868 3.497641e-42
-0.013090968 -0.085272059 -0.022696614 3.497641e-42
0.043850482 0.044169426 0.019553423 3.497641e-42
-0.0071669817 -0.085980713 -0.024779797 3.497641e-42
-0.0067728162 0.20555001 -0.014779806 3.497641e-42
0.024504006 -0.085030511 -0.023416281 3.497641e-42
0.0067867637 -0.094563141 -0.03341639 3.497641e-42
0.033041835 0.024657577 -0.00061321259 3.497641e-42
0.035438061 0.20540982 -0.013708472 3.497641e-42
0.054990232 0.14395547 0.032220125 3.497641e-42
-0.021591663 0.0053802133 -0.019779921 3.497641e-42
-0.069225967 0.10612977 -0.0047799349 3.497641e-42
0.029903173 -0.16470855 0.0078867674 3.497641e-42
-0.069278359 0.21982023 0.022220135 3.497641e-42
0.055082738 -0.045017079 0.038220048 3.497641e-42
-0.042655349 -0.18513861 -0.014422774 3.497641e-42
-0.048944116 0.10528466 -0.0047798157 3.497641e-42
-0.033323467 -0.18534182 -0.014779925 3.497641e-42
0.039419234 -0.054893211 0.028720021 3.497641e-42
0.023911774 0.0029437244 -0.021446586 3.497641e-42
-0.043247879 0.10331231 -0.0097798109 3.497641e-42
-0.0030964613 -0.0035559237 -0.02978003 3.497641e-42
0.0051680803 -0.004262358 -0.030196667 3.497641e-42
0.036682725 -0.064737856 0.019648671 3.497641e-42
-0.047859073 0.2056461 0.0062202215 3.497641e-42
0.018729031 -0.19209477 -0.021029949 3.497641e-42
0.030287385 -0.077360719 0.0062201023 3.497641e-42
0.050664485 -0.13664834 0.05422008 3.497641e-42
0.034737825 -0.075841367 0.0078868866 3.497641e-42
0.053312123 -0.13664834 0.05422008 3.497641e-42
0.059597909 0.04438144 0.040362954 3.497641e-42
-0.069404066 0.009549737 0.0062201023 3.497641e-42
-0.035142839 0.19370532 -0.0044673681 3.497641e-42
0.026652634 -0.084609121 -0.0017799139 3.497641e-42
-0.027575672 0.19377661 -0.0047799349 3.497641e-42
-0.064445496 0.0045202076 -0.00061309338 3.497641e-42
0.03324163 0.091860235 -0.019779921 3.497641e-42
0.040000916 0.20586517 0.0062201023 3.497641e-42
0.023875475 -0.095152646 -0.012279868 3.497641e-42
-0.082999349 -0.18589406 0.0078868866 3.497641e-42
-0.013912916 -0.10422254 -0.020279884 3.497641e-42
0.041948318 0.024095803 0.022220254 3.497641e-42
0.053708792 -0.15421739 0.038219929 3.497641e-42
-0.0059183836 -0.10554168 -0.024779916 3.497641e-42
0.039134979 0.018073559 0.016220093 3.497641e-42
-0.08467263 0.21774402 0.038220048 3.497641e-42
0.0578565 -0.15648338 0.032220125 3.497641e-42
0.042743802 0.19489905 -0.0010299683 3.497641e-42
0.023214996 -0.10491312 -0.019779921 3.497641e-42
-0.042826891 -0.0051531196 -0.0097798109 3.497641e-42
0.037645698 0.014279902 0.0084424019 3.497641e-42
-0.070694029 -0.19519672 -0.0027798414 3.497641e-42
-0.081809759 0.21170405 0.032220125 3.497641e-42
-0.0031049848 0.17959356 -0.019779921 3.497641e-42
0.00661093 -0.11491191 -0.033529997 3.497641e-42
0.036059201 -0.17421237 0.018220186 3.497641e-42
0.014765739 -0.11517809 -0.032279968 3.497641e-42
0.004070282 0.17538691 -0.024779916 3.497641e-42
-0.079424083 0.20604783 0.02722013 3.497641e-42
0.070401669 -0.17076644 0.022220135 3.497641e-42
0.072988331 -0.17076644 0.022220135 3.497641e-42
0.035748303 0.17834023 -0.019779921 3.497641e-42
0.04730612 -0.065281257 0.038220048 3.497641e-42
0.016650975 0.16489506 -0.032426953 3.497641e-42
-0.047495365 0.085123539 -0.0047799349 3.497641e-42
-0.034538388 -0.20515069 -0.013241291 3.497641e-42
0.025314927 0.16642007 -0.032279968 3.497641e-42
0.037665069 -0.074901715 0.030553579 3.497641e-42
0.028508484 -0.19422573 -0.0035297871 3.497641e-42
0.025750041 -0.01537782 -0.021565557 3.497641e-42
-0.063334823 -0.10471086 -0.00068891048 3.497641e-42
-0.0028572679 -0.026662111 -0.029779911 3.497641e-42
0.0062321424 -0.026566461 -0.02978003 3.497641e-42
-0.016891658 -0.21144643 -0.019779921 3.497641e-42
0.023807406 -0.20319529 -0.010279775 3.497641e-42
0.014938772 -0.026566431 -0.02978003 3.497641e-42
-0.054443419 0.18428579 0.0066047907 3.497641e-42
-0.023079038 0.077060938 -0.014779925 3.497641e-42
0.040338814 0.08973071 0.00022006035 3.497641e-42
-0.048954546 0.18464881 0.0062201023 3.497641e-42
0.061504543 0.21170405 0.032220125 3.497641e-42
0.034861028 -0.095506251 0.0082201958 3.497641e-42
-0.021278381 0.068673581 -0.019779921 3.497641e-42
0.056894243 0.20453283 0.028470278 3.497641e-42
0.049013674 0.19475991 0.019553423 3.497641e-42
0.051081657 0.016275465 0.032220125 3.497641e-42
0.025038064 -0.11553973 -0.012030005 3.497641e-42
-0.021028638 0.16485202 -0.012779951 3.497641e-42
0.046422422 -0.17577907 0.038219929 3.497641e-42
0.016381919 0.054643929 -0.034191608 3.497641e-42
0.063088298 0.11876595 0.049220085 3.497641e-42
0.043749034 -0.18314263 0.030970097 3.497641e-42
0.040155649 0.17400214 -0.0014466047 3.497641e-42
-0.042069197 -0.024601102 -0.0097798109 3.497641e-42
0.03837955 -0.18549342 0.028053522 3.497641e-42
0.023006916 -0.12899548 -0.022279978 3.497641e-42
-0.053817391 -0.2105512 0.00022006035 3.497641e-42
0.033788979 -0.1950947 0.018886805 3.497641e-42
0.00670439 -0.136623 -0.032856941 3.497641e-42
-0.062768996 0.074945271 0.0070534945 3.497641e-42
0.015527666 -0.13572322 -0.031838894 3.497641e-42
0.028739154 0.15601653 -0.020335436 3.497641e-42
1.3113022e-05 0.14756688 -0.029779911 3.497641e-42
0.030079782 -0.20729595 0.0076488256 3.497641e-42
0.047800004 -0.085405618 0.039331079 3.497641e-42
0.016446173 0.14468434 -0.031250596 3.497641e-42
0.04533577 -0.096182272 0.03176558 3.497641e-42
-0.06348753 -0.12581062 0.00022017956 3.497641e-42
0.0061050653 -0.046501294 -0.030446529 3.497641e-42
0.038739979 0.075051636 0.0074701309 3.497641e-42
-0.070628166 0.16417235 0.0077201128 3.497641e-42
0.034385145 -0.10556264 0.019553423 3.497641e-42
-0.069155931 0.15382454 -0.0022799969 3.497641e-42
0.050385475 0.18398023 0.02722013 3.497641e-42
0.033905745 -0.11719453 0.0099701881 3.497641e-42
-0.011824131 0.044691235 -0.023668885 3.497641e-42
-0.066208839 -0.033266455 0.0062201023 3.497641e-42
-0.0059183836 0.045535475 -0.024779916 3.497641e-42
-0.083318353 0.076238334 0.02722013 3.497641e-42
0.054689527 -0.0054721832 0.032220125 3.497641e-42
-0.062299967 -0.0375074 0.00022006035 3.497641e-42
0.057870209 0.10747167 0.056220174 3.497641e-42
-0.023258865 -0.1451354 -0.020113111 3.497641e-42
0.039234042 0.16419926 0.0062201023 3.497641e-42
0.043468535 -0.19455484 0.041219831 3.497641e-42
-0.07962501 0.071086884 0.022220135 3.497641e-42
0.023324013 -0.13581976 -0.011446476 3.497641e-42
0.041948318 -0.015566438 0.022220135 3.497641e-42
-0.063469529 -0.045084506 -0.0044465065 3.497641e-42
-0.024529397 0.14395794 -0.010662198 3.497641e-42
-0.079325974 0.064427823 0.016220093 3.497641e-42
-0.051896572 -0.046597779 -0.0097796917 3.497641e-42
0.039610028 0.15373152 -0.0017799139 3.497641e-42
-0.037535489 -0.043449298 -0.0047799349 3.497641e-42
-0.0090602636 0.14230213 -0.014779925 3.497641e-42
-0.0047360063 -0.15626185 -0.02978003 3.497641e-42
0.031601667 -0.21215311 0.022220135 3.497641e-42
0.034520864 0.14475974 -0.012279987 3.497641e-42
-0.065752387 0.054830849 0.0062202215 3.497641e-42
0.028840363 0.14155993 -0.01311326 3.497641e-42
-0.024157405 -0.052702636 -0.014779925 3.497641e-42
-0.061451674 0.049014509 0.00022006035 3.497641e-42
0.053960562 -0.10485169 0.041220069 3.497641e-42
0.04768002 -0.10603391 0.038220048 3.497641e-42
0.023918033 0.12407631 -0.032472253 3.497641e-42
-0.049141228 0.041572601 -0.0097799301 3.497641e-42
-0.043704927 0.037168652 -0.010613203 3.497641e-42
-0.0012307167 -0.066368341 -0.02978003 3.497641e-42
0.006502986 -0.066466555 -0.030405045 3.497641e-42
0.039234042 0.054283082 0.0062201023 3.497641e-42
-0.033777773 0.035726339 -0.010234237 3.497641e-42
0.014938772 -0.066368341 -0.02978003 3.497641e-42
-0.055345058 0.14332372 0.0062201023 3.497641e-42
0.061504543 0.16870975 0.032220125 3.497641e-42
-0.051896513 -0.15382585 -0.0097796917 3.497641e-42
0.033404529 -0.13437025 0.011220098 3.497641e-42
0.049087405 0.16450879 0.027220249 3.497641e-42
-0.012606978 0.024286717 -0.023779869 3.497641e-42
0.038817823 -0.20519215 0.049220204 3.497641e-42
-0.0071669221 0.024309754 -0.024779916 3.497641e-42
0.045940638 -0.20440073 0.049220204 3.497641e-42
-0.038803101 0.1289469 -0.0047799349 3.497641e-42
0.032454967 -0.21125311 0.043220043 3.497641e-42
0.051364541 0.14914119 0.011220098 3.497641e-42
-0.030051708 -0.16569978 -0.019779921 3.497641e-42
0.045478344 0.14458805 0.0092201233 3.497641e-42
0.038914502 0.14279118 0.0062201023 3.497641e-42
-0.047422945 -0.064238265 -0.0047799349 3.497641e-42
0.029776156 0.1337609 -0.0035300255 3.497641e-42
-0.042826891 -0.067033097 -0.0097798109 3.497641e-42
-0.011872232 -0.17596179 -0.02978003 3.497641e-42
-0.014426768 0.11564517 -0.020494223 3.497641e-42
0.02678138 0.12446949 -0.012696505 3.497641e-42
-0.033697307 -0.074770346 -0.014279842 3.497641e-42
-0.064291716 0.03441456 0.0062201023 3.497641e-42
-0.003421247 0.11358258 -0.024779916 3.497641e-42
-0.026673555 -0.075348347 -0.014779925 3.497641e-42
-0.056623101 0.035111666 0.0062201023 3.497641e-42
0.026500881 0.11512297 -0.021654963 3.497641e-42
0.047471046 0.054370701 0.028053522 3.497641e-42
-0.029425025 -0.078593105 -0.019779921 3.497641e-42
-0.024894416 0.2148366 -0.0097796917 3.497641e-42
-0.015724123 0.21526408 -0.0097798109 3.497641e-42
0.0062028766 0.10463193 -0.031702995 3.497641e-42
-0.045856237 0.024381727 -0.0018632412 3.497641e-42
0.044381261 -0.13429759 0.032220244 3.497641e-42
0.025619805 0.10412353 -0.032835484 3.497641e-42
-0.080113292 -0.16559374 0.00022006035 3.497641e-42
-0.073968887 0.12461132 0.0099701881 3.497641e-42
0.034551501 -0.14551754 0.020220041 3.497641e-42
0.038588464 0.033531874 0.0067757368 3.497641e-42
-0.03468138 0.014784724 -0.01102984 3.497641e-42
0.059270203 0.15362403 0.038220048 3.497641e-42
0.062410772 0.15283889 0.038220048 3.497641e-42
0.00015360117 0.2026549 -0.019779921 3.497641e-42
0.02986747 0.024753302 -0.0026370287 3.497641e-42
-0.066541195 0.11517832 0.00022006035 3.497641e-42
0.016068637 -0.094295368 -0.034485698 3.497641e-42
0.03324163 0.20215359 -0.019779921 3.497641e-42
-0.079628825 -0.07480453 0.0062201023 3.497641e-42
0.024391711 0.19458291 -0.02978003 3.497641e-42
0.061887383 -0.041353106 0.038220048 3.497641e-42
0.025544703 0.014174014 -0.012937903 3.497641e-42
-0.0059183836 0.0055811703 -0.024779916 3.497641e-42
-0.072903097 -0.080768347 0.00022006035 3.497641e-42
-0.0099374056 -0.00044643879 -0.029779911 3.497641e-42
0.043547571 0.12498677 0.01022017 3.497641e-42
-0.034122348 0.10392559 -0.012557864 3.497641e-42
-0.054014504 -0.085280746 -0.0047798157 3.497641e-42
-0.048944056 -0.085280731 -0.0047799349 3.497641e-42
0.024316072 -0.0041338205 -0.030780077 3.497641e-42
-0.0030964613 -0.19572453 -0.02978003 3.497641e-42
-0.073238373 0.013384014 0.0062201023 3.497641e-42
-0.032963991 -0.094219789 -0.014780045 3.497641e-42
-0.024157345 -0.095020384 -0.014779806 3.497641e-42
0.046981096 0.034141928 0.027636766 3.497641e-42
-0.0012307167 0.086620241 -0.029779911 3.497641e-42
-0.02186352 0.19362062 -0.0097798109 3.497641e-42
-0.054345369 0.0040660203 -0.0032413006 3.497641e-42
-0.07707262 -0.18216453 0.0062201023 3.497641e-42
0.0392645 0.024520367 0.019648671 3.497641e-42
0.040338814 0.20297262 0.00022006035 3.497641e-42
0.05979073 0.14184928 0.049220085 3.497641e-42
-0.0090602636 0.18633547 -0.014779925 3.497641e-42
-0.071399391 -0.18672296 0.00022017956 3.497641e-42
0.019079804 -0.1051762 -0.021863222 3.497641e-42
0.057893276 0.13408846 0.041219831 3.497641e-42
-0.062887907 -0.19429597 -0.0047799349 3.497641e-42
-0.024157405 -0.0090886652 -0.014779925 3.497641e-42
0.037094831 0.18575099 -0.013351321 3.497641e-42
0.052818775 0.12614977 0.032220125 3.497641e-42
-0.016608834 -0.0074112117 -0.014779925 3.497641e-42
0.034441471 0.0043294132 -0.0022796392 3.497641e-42
-0.0012307167 0.17244306 -0.029779911 3.497641e-42
-0.055433691 0.093377024 -0.00040483475 3.497641e-42
-0.021591663 -0.013733119 -0.019779921 3.497641e-42
-0.012761831 -0.014414877 -0.020613194 3.497641e-42
0.028385401 -0.0051766038 -0.01200211 3.497641e-42
-0.073639154 -0.09514533 0.0070534945 3.497641e-42
0.052727342 -0.066215947 0.038219929 3.497641e-42
0.0028216839 -0.015644521 -0.024779916 3.497641e-42
0.062155962 -0.06645596 0.032220125 3.497641e-42
-0.041564107 0.08450979 -0.0097799301 3.497641e-42
-0.064092636 0.19404116 0.011220098 3.497641e-42
0.019053102 -0.018141687 -0.024779916 3.497641e-42
0.052219748 0.10509643 0.011220098 3.497641e-42
0.045730531 0.10412505 0.0098869801 3.497641e-42
-0.054014504 -0.10683027 -0.0047799349 3.497641e-42
-0.047253966 -0.10598516 -0.0047798157 3.497641e-42
-0.016608834 0.078139275 -0.014779925 3.497641e-42
0.01281023 -0.21167025 -0.024779916 3.497641e-42
-0.021278322 0.072433561 -0.019779921 3.497641e-42
0.028050721 -0.094934553 0.0062201023 3.497641e-42
0.056227565 0.024907202 0.040362954 3.497641e-42
0.027424514 0.078139275 -0.014779925 3.497641e-42
-0.033539057 -0.1148331 -0.013530016 3.497641e-42
0.028888166 -0.10533111 -0.002904892 3.497641e-42
-0.028028369 0.17394736 -0.0047799349 3.497641e-42
0.046454251 0.014528364 0.029143333 3.497641e-42
-0.061451674 -0.014604539 0.00022006035 3.497641e-42
-0.0015416741 0.064853549 -0.02978003 3.497641e-42
0.061254978 0.12811357 0.05422008 3.497641e-42
0.023956418 0.065475464 -0.02978003 3.497641e-42
-0.013029277 -0.12631477 -0.023529887 3.497641e-42
-0.005502224 -0.12427025 -0.024779797 3.497641e-42
0.035478473 -0.005019933 0.0089474916 3.497641e-42
-0.019398332 0.15954024 -0.019779921 3.497641e-42
0.020475924 -0.12474494 -0.022637129 3.497641e-42
-0.033967912 -0.025880545 -0.012592554 3.497641e-42
0.027172863 0.16620594 -0.014779925 3.497641e-42
-0.08705169 -0.10811311 0.016220093 3.497641e-42
-0.04444623 -0.21135525 -0.0035300255 3.497641e-42
-0.012244105 -0.034836724 -0.021779895 3.497641e-42
0.04444927 0.094831228 0.020220041 3.497641e-42
0.055905282 -0.084162101 0.038220048 3.497641e-42
0.032416224 -0.02458401 -0.010890961 3.497641e-42
-0.072936296 -0.11578825 0.0077201128 3.497641e-42
0.062410772 -0.084274262 0.038220048 3.497641e-42
0.027167439 -0.027374491 -0.013870716 3.497641e-42
0.016705751 -0.21281628 -0.0031132698 3.497641e-42
-0.0041703582 -0.036870241 -0.024779916 3.497641e-42
0.018357277 -0.034549132 -0.020689011 3.497641e-42
-0.06792134 0.17497912 0.016220212 3.497641e-42
0.026092887 -0.21173194 -0.00089097023 3.497641e-42
0.03805536 -0.096020147 0.028220415 3.497641e-42
0.042612433 0.082422107 0.0095535517 3.497641e-42
-0.00060880184 -0.044601679 -0.029779911 3.497641e-42
0.063195944 0.19549832 0.038219929 3.497641e-42
0.015046358 -0.045538634 -0.032426953 3.497641e-42
-0.054678679 0.1650413 0.0068451166 3.497641e-42
-0.048954546 0.16675547 0.0062201023 3.497641e-42
-0.046408832 -0.12711214 -0.0047798157 3.497641e-42
0.030471146 -0.11508706 0.0078868866 3.497641e-42
0.047231376 0.0052320361 0.038220048 3.497641e-42
-0.073825359 -0.025528431 0.010109067 3.497641e-42
0.054879069 0.0046968758 0.039470077 3.497641e-42
0.02891928 0.06115213 -0.012279987 3.497641e-42
-0.08448565 0.082291037 0.03055346 3.497641e-42
-0.069595516 -0.14674453 -0.024779916 3.497641e-42
-0.036593795 0.15380418 -0.0040656328 3.497641e-42
-0.074175537 -0.21412708 0.016220093 3.497641e-42
0.029142499 -0.12608157 -0.0022799969 3.497641e-42
-0.056753814 -0.03472358 -0.00049412251 3.497641e-42
-0.054861188 -0.21498549 0.016220093 3.497641e-42
-0.076322615 0.073294997 0.020720005 3.497641e-42
0.05309546 -0.19169834 0.040719986 3.497641e-42
-0.055282176 -0.040914059 -0.0047799349 3.497641e-42
-0.013633013 -0.14494747 -0.024279952 3.497641e-42
-0.075463057 0.065715462 0.016220093 3.497641e-42
-0.014882684 0.14423832 -0.013946533 3.497641e-42
-0.07050699 0.064472646 0.011220098 3.497641e-42
0.018631637 -0.14452827 -0.022961736 3.497641e-42
-0.042736232 -0.04605858 -0.012696505 3.497641e-42
0.058306038 0.094750524 0.042219996 3.497641e-42
-0.034432411 -0.046043232 -0.011565447 3.497641e-42
-0.024166226 -0.045932695 -0.011967421 3.497641e-42
-0.0034211874 0.1354326 -0.024779916 3.497641e-42
0.014800906 -0.15634473 -0.031780005 3.497641e-42
0.053426802 0.084805727 0.032220125 3.497641e-42
0.029852867 -0.037018061 -0.0027799606 3.497641e-42
0.071186423 -0.028793111 0.0062201023 3.497641e-42
0.025811017 0.13545895 -0.02200222 3.497641e-42
-0.021905005 -0.056346446 -0.019779921 3.497641e-42
0.024671972 -0.045664296 -0.012087584 3.497641e-42
-0.048944056 0.045284033 -0.0047799349 3.497641e-42
0.016889095 0.12379143 -0.03436327 3.497641e-42
0.039236069 -0.11478114 0.028583765 3.497641e-42
-0.073585808 -0.14520156 -0.0016549826 3.497641e-42
-0.063624799 -0.14603257 -0.0025070906 3.497641e-42
-0.070938885 0.144007 0.0080951452 3.497641e-42
0.035656512 -0.1262731 0.019820094 3.497641e-42
-0.062757969 0.1436646 0.0062199831 3.497641e-42
-0.056549788 -0.14739406 -0.0047799349 3.497641e-42
0.030248463 -0.13422464 0.0084424019 3.497641e-42
-0.042933404 -0.15438931 -0.012279749 3.497641e-42
-0.074516475 -0.049242616 0.0062201023 3.497641e-42
0.053195477 -0.20242216 0.049220085 3.497641e-42
0.045215547 -0.025335371 0.031220198 3.497641e-42
0.027822793 -0.1461952 -0.0027799606 3.497641e-42
0.055522323 -0.025121048 0.031066418 3.497641e-42
-0.023679614 -0.16484393 -0.020549178 3.497641e-42
-0.081349492 0.053411335 0.022220254 3.497641e-42
0.034781158 -0.035222173 0.020720005 3.497641e-42
0.022272468 -0.15431629 -0.011446476 3.497641e-42
-0.013825953 -0.16547309 -0.024779916 3.497641e-42
-0.023905754 0.12393397 -0.014779925 3.497641e-42
-0.075033903 0.045113593 0.016220093 3.497641e-42
0.033460021 0.1352801 -0.0022797585 3.497641e-42
0.054833651 0.074374348 0.041220069 3.497641e-42
0.018332779 -0.166555 -0.022637129 3.497641e-42
-0.0037789941 -0.17554268 -0.030851483 3.497641e-42
0.015031874 -0.17604798 -0.032904983 3.497641e-42
0.052123904 0.063960046 0.032220125 3.497641e-42
-0.031461179 0.21837261 -0.0097799301 3.497641e-42
-0.021905005 -0.075402811 -0.019779921 3.497641e-42
0.0474931 -0.12641025 0.038219929 3.497641e-42
0.052727342 -0.12641025 0.038219929 3.497641e-42
0.016076088 0.10392195 -0.034779906 3.497641e-42
-0.037789047 0.025509179 -0.0047799349 3.497641e-42
0.057595968 -0.13225025 0.032220125 3.497641e-42
-0.079486907 0.13118118 0.011220098 3.497641e-42
-0.072226584 -0.16516812 -0.00016438961 3.497641e-42
0.061504543 -0.1309474 0.032220125 3.497641e-42
-0.0016453266 -0.086131096 -0.02978003 3.497641e-42
-0.06300962 -0.16618016 -0.0018632412 3.497641e-42
0.0056102276 -0.085232794 -0.02978003 3.497641e-42
0.041784525 0.21837261 -0.0097799301 3.497641e-42
0.035039067 0.21550718 -0.01214838 3.497641e-42
-0.064611137 0.12489784 0.0062201023 3.497641e-42
0.022401631 -0.085025474 -0.029779911 3.497641e-42
-0.024716437 0.014954925 -0.014779925 3.497641e-42
-0.053169966 -0.17443627 -0.010613084 3.497641e-42
0.049019456 0.14448288 0.027775645 3.497641e-42
0.027756512 0.20361939 -0.021838665 3.497641e-42
0.034184456 -0.15466428 0.0098565817 3.497641e-42
0.009963572 0.19483164 -0.029779911 3.497641e-42
-0.055511892 0.11465195 -0.0015980005 3.497641e-42
0.016099572 0.19508052 -0.029779911 3.497641e-42
-0.012905598 0.005653441 -0.02311337 3.497641e-42
0.061887383 -0.038735971 0.038220048 3.497641e-42
0.047223806 0.13493448 0.018620133 3.497641e-42
0.051081657 -0.044958815 0.032220125 3.497641e-42
-0.079264998 -0.07567881 0.00022006035 3.497641e-42
0.044982672 -0.045879841 0.031148791 3.497641e-42
0.026821434 -0.16657561 -0.0022797585 3.497641e-42
0.020504951 0.0073583126 -0.022279978 3.497641e-42
-0.022825301 -0.18481819 -0.021446586 3.497641e-42
0.038904667 0.12482515 0.0070534945 3.497641e-42
-0.054852426 0.21402556 0.0094019175 3.497641e-42
0.022401631 0.0020411909 -0.029779911 3.497641e-42
-0.014158905 -0.18694854 -0.024779916 3.497641e-42
-0.02289927 0.10455933 -0.014780045 3.497641e-42
0.016068637 -0.0053564608 -0.034485698 3.497641e-42
0.037401319 0.11527964 -0.0034161806 3.497641e-42
0.019162476 -0.18361026 -0.021208525 3.497641e-42
-0.042826891 -0.085975975 -0.0097798109 3.497641e-42
0.023131788 -0.18544091 -0.020779967 3.497641e-42
-0.041093588 0.20551738 0.00022006035 3.497641e-42
-0.012713909 0.096038014 -0.019779921 3.497641e-42
0.061887383 0.050246894 0.038220048 3.497641e-42
0.0069925785 -0.1957759 -0.032113314 3.497641e-42
-0.0059183836 0.094645917 -0.024779916 3.497641e-42
0.035414875 0.10428444 -0.013530016 3.497641e-42
0.016626716 -0.19617894 -0.032279968 3.497641e-42
0.053855002 -0.13712931 0.049220085 3.497641e-42
0.044322848 0.21481898 0.0095535517 3.497641e-42
-0.082112014 0.11750847 0.020220041 3.497641e-42
0.029128611 0.09520188 -0.022507191 3.497641e-42
0.0066255927 0.084790707 -0.031922817 3.497641e-42
0.02488929 0.087242126 -0.029779911 3.497641e-42
-0.016135693 0.19440418 -0.010688901 3.497641e-42
0.016795039 0.084542781 -0.032835484 3.497641e-42
-0.04831028 0.0034526289 -0.0047799349 3.497641e-42
0.043446004 -0.15600753 0.03079164 3.497641e-42
1.3113022e-05 -0.10617025 -0.029779911 3.497641e-42
-0.071852744 0.10465515 0.0094344616 3.497641e-42
-0.0020796657 0.18551841 -0.019779921 3.497641e-42
0.062274516 0.136035 0.040719986 3.497641e-42
-0.032963991 -0.0061531067 -0.014780045 3.497641e-42
0.042285681 0.19393784 -0.01102984 3.497641e-42
-0.056549788 -0.19176072 -0.0047799349 3.497641e-42
-0.052749336 -0.19494249 -0.0097798109 3.497641e-42
0.029648304 0.0030300915 -0.0047798157 3.497641e-42
0.046749532 0.12390184 0.028374076 3.497641e-42
0.033561289 0.18466556 -0.021779895 3.497641e-42
0.034057438 -0.17675284 0.010506034 3.497641e-42
0.0074759126 0.17368689 -0.029779911 3.497641e-42
0.04505688 0.11549643 0.019220114 3.497641e-42
0.045291185 -0.064356938 0.032220125 3.497641e-42
-0.0042444468 -0.015278459 -0.022904873 3.497641e-42
0.058898807 -0.064501673 0.032220125 3.497641e-42
-0.071219683 0.19503894 0.011220098 3.497641e-42
0.049661636 -0.1350131 0.07122004 3.497641e-42
-0.022679389 -0.20447399 -0.021598101 3.497641e-42
-0.034823895 0.085521728 -0.010717273 3.497641e-42
-0.043809056 -0.10604136 -0.0097798109 3.497641e-42
0.04320997 0.09493196 -0.0033513308 3.497641e-42
-0.043638349 0.18515927 0.00022006035 3.497641e-42
-0.011907578 0.074935555 -0.020279884 3.497641e-42
0.041784525 0.089561164 -0.0097799301 3.497641e-42
-0.071960211 -0.0048578382 0.0062201023 3.497641e-42
0.034904122 0.085202754 -0.01214838 3.497641e-42
0.052678764 0.20610246 0.021220207 3.497641e-42
-0.092202127 -0.19180834 0.016220093 3.497641e-42
-0.0051692724 0.073503464 -0.024779916 3.497641e-42
-0.023189604 -0.11386542 -0.014779806 3.497641e-42
0.052647352 0.19532403 0.011220098 3.497641e-42
-0.083673418 -0.19611311 0.0082201958 3.497641e-42
0.02685672 0.073598444 -0.022507191 3.497641e-42
-0.020651698 -0.11744644 -0.019779921 3.497641e-42
-0.022440851 0.17471385 -0.0097798109 3.497641e-42
-0.055036128 -0.014861047 -0.0029940605 3.497641e-42
0.061254978 0.13076118 0.05422008 3.497641e-42
0.041805387 0.0064590573 0.018620133 3.497641e-42
0.016770899 0.065271109 -0.030933857 3.497641e-42
0.044919312 0.18541378 0.00022006035 3.497641e-42
-0.016608834 0.16872212 -0.014779925 3.497641e-42
0.064671159 0.1235145 0.049220204 3.497641e-42
0.042997479 -0.17590281 0.030220151 3.497641e-42
0.017961621 0.056732625 -0.039779902 3.497641e-42
-0.0027232766 -0.12681749 -0.02978003 3.497641e-42
-0.014384985 0.16330022 -0.019779921 3.497641e-42
0.034695208 -0.18497321 0.020220041 3.497641e-42
0.058004856 0.11492497 0.040219903 3.497641e-42
-0.025100946 -0.026282623 -0.014779925 3.497641e-42
0.020708323 0.16455355 -0.019779921 3.497641e-42
0.033858299 -0.014790624 -0.0026370287 3.497641e-42
-0.03576082 -0.2117891 -0.0047799349 3.497641e-42
0.055108964 0.10478312 0.031907678 3.497641e-42
0.04973644 0.10414737 0.02722013 3.497641e-42
0.030523658 -0.19592196 0.0083631277 3.497641e-42
0.033264339 -0.19729811 0.0099701881 3.497641e-42
0.0064809322 0.15527853 -0.029779911 3.497641e-42
-0.019398332 -0.030966446 -0.019779921 3.497641e-42
0.039361656 0.095660239 0.022220135 3.497641e-42
0.062351942 -0.077049658 0.041220188 3.497641e-42
0.016182601 0.15502974 -0.02978003 3.497641e-42
-0.06684792 -0.11314738 0.0062201023 3.497641e-42
0.045291126 -0.084913105 0.032220125 3.497641e-42
-0.079325974 0.17902595 0.016220093 3.497641e-42
-0.071600258 0.17902595 0.016220093 3.497641e-42
-0.041564047 0.066829741 -0.0097799301 3.497641e-42
0.023214996 -0.032219768 -0.019779921 3.497641e-42
-0.062040091 0.17377204 0.011220098 3.497641e-42
-0.072044671 0.17310396 0.0099701881 3.497641e-42
-0.034111679 0.064933509 -0.012279987 3.497641e-42
-0.056549788 -0.12542199 -0.0047798157 3.497641e-42
0.057435274 0.015503347 0.049220204 3.497641e-42
0.061504543 0.19737262 0.032220125 3.497641e-42
-0.050825059 -0.12652771 -0.0097798109 3.497641e-42
-0.079486907 -0.020195961 0.011220098 3.497641e-42
-0.092558324 -0.20568645 0.022220135 3.497641e-42
-0.046183109 0.1618323 0.00022006035 3.497641e-42
-0.012501001 0.055614501 -0.020549178 3.497641e-42
0.047991037 0.18470278 0.020583749 3.497641e-42
-0.034222126 -0.13447881 -0.014779806 3.497641e-42
-0.064524055 -0.024610266 0.0062201023 3.497641e-42
-0.0046697855 0.053026885 -0.024779797 3.497641e-42
0.040000677 -0.0051089823 0.027220249 3.497641e-42
0.045773923 -0.0051761866 0.029095173 3.497641e-42
-0.0017638206 0.045752198 -0.029779911 3.497641e-42
0.046829283 -0.186115 0.041296959 3.497641e-42
0.0053710341 0.04528746 -0.029779911 3.497641e-42
0.037958741 -0.014840692 0.019220114 3.497641e-42
-0.0071669221 -0.14424738 -0.024779916 3.497641e-42
0.057812154 0.10425642 0.049220085 3.497641e-42
-0.089971662 -0.11903311 0.022220135 3.497641e-42
0.034444332 -0.024975806 0.0080384016 3.497641e-42
0.0061540604 -0.15611547 -0.034485817 3.497641e-42
0.032760978 -0.034454763 -0.0022798777 3.497641e-42
1.3113022e-05 0.13264117 -0.029779911 3.497641e-42
-0.081545949 -0.13487501 0.0062201023 3.497641e-42
-0.013620615 -0.055288702 -0.022904992 3.497641e-42
0.043850541 0.074286252 0.019553423 3.497641e-42
0.042384505 0.065755486 0.011220098 3.497641e-42
0.023751497 -0.056379363 -0.021922588 3.497641e-42
0.062373102 0.17609259 0.032220125 3.497641e-42
0.032523572 0.045782119 -0.0097798109 3.497641e-42
-0.012997985 0.034494132 -0.021779895 3.497641e-42
-0.079628825 -0.047964543 0.0062201023 3.497641e-42
-0.035660028 -0.15478808 -0.014779925 3.497641e-42
-0.03721863 0.1359188 -0.0047799349 3.497641e-42
0.037892103 -0.026886806 0.027636766 3.497641e-42
0.024300933 0.034244448 -0.021779895 3.497641e-42
0.036979258 -0.20449471 0.041719913 3.497641e-42
0.051364541 0.15555546 0.011220098 3.497641e-42
-0.0024744868 0.024429768 -0.02978003 3.497641e-42
0.02030164 0.030552596 -0.024779916 3.497641e-42
0.0061277747 0.025681287 -0.03011322 3.497641e-42
-0.055678546 -0.0551375 -0.0017797947 3.497641e-42
0.016068876 0.025467604 -0.030368328 3.497641e-42
0.030235946 -0.21433026 0.032220125 3.497641e-42
0.017779112 -0.15544707 -0.014779806 3.497641e-42
0.057030678 -0.20742501 0.040719986 3.497641e-42
0.022401631 0.024429739 -0.029779911 3.497641e-42
-0.046915889 -0.057646632 -0.0047799349 3.497641e-42
-0.072645068 0.046512634 0.011220098 3.497641e-42
-0.0099374056 -0.16960454 -0.029779911 3.497641e-42
0.034405291 -0.044990867 0.0087201595 3.497641e-42
0.028753638 -0.047197685 0.0062201023 3.497641e-42
-0.03339529 -0.06639792 -0.013842583 3.497641e-42
-0.026673555 -0.069057882 -0.014779925 3.497641e-42
0.0064469576 -0.1765395 -0.034779906 3.497641e-42
-0.054742754 0.034902662 0.00022017956 3.497641e-42
0.025859833 -0.065796152 -0.012279749 3.497641e-42
-0.079628825 -0.15404645 0.0062201023 3.497641e-42
-0.071960211 -0.15596358 0.0062201023 3.497641e-42
-0.066847861 -0.15532453 0.0062201023 3.497641e-42
-0.0071669221 -0.075575963 -0.024779916 3.497641e-42
-0.079264998 -0.15965596 0.00022006035 3.497641e-42
0.061504543 -0.12703882 0.032220125 3.497641e-42
0.038096368 -0.13519733 0.028782725 3.497641e-42
0.042201221 0.04467994 0.011220098 3.497641e-42
-0.0046010017 0.21494815 -0.013946533 3.497641e-42
0.0010045171 0.21527165 -0.014779925 3.497641e-42
-0.032303154 0.025155485 -0.0097798109 3.497641e-42
0.023580372 -0.075922281 -0.022904873 3.497641e-42
0.061887383 0.16016689 0.038220048 3.497641e-42
0.035013437 0.035222948 -0.00016438961 3.497641e-42
0.016614377 -0.085758537 -0.031208515 3.497641e-42
0.054990232 0.15437829 0.032220125 3.497641e-42
0.0061780214 0.20541263 -0.022637129 3.497641e-42
0.042721629 -0.2134293 0.05422008 3.497641e-42
0.029397786 -0.15623131 0.0068451166 3.497641e-42
0.048801661 -0.034810245 0.038220048 3.497641e-42
-0.080436826 -0.066880405 0.0078868866 3.497641e-42
-0.043087065 -0.17493933 -0.014113188 3.497641e-42
-0.047253966 0.11584821 -0.0047799349 3.497641e-42
-0.071885228 -0.075169891 0.00022017956 3.497641e-42
-0.042574346 0.11178747 -0.0097798109 3.497641e-42
0.04315424 0.13451666 0.011220098 3.497641e-42
-0.063601255 -0.074529454 -0.00061309338 3.497641e-42
-0.029425025 -0.18136644 -0.019779921 3.497641e-42
0.015960932 0.0051106215 -0.030717492 3.497641e-42
0.036190391 -0.055592403 0.018947482 3.497641e-42
-0.048944056 -0.078942627 -0.0047799349 3.497641e-42
-0.047676444 0.21532309 0.0062201023 3.497641e-42
0.034569502 -0.065683961 0.0092970133 3.497641e-42
-0.034871519 0.20462695 -0.0022797585 3.497641e-42
0.054990232 0.044938356 0.032220125 3.497641e-42
-0.027648091 0.20196179 -0.0047799349 3.497641e-42
-0.083836436 0.12094977 0.020220041 3.497641e-42
0.040000856 0.21455625 0.0062201023 3.497641e-42
-0.082592189 -0.17571691 0.0070534945 3.497641e-42
-0.013754606 -0.094667569 -0.020689011 3.497641e-42
0.05387646 -0.14366359 0.039648533 3.497641e-42
-0.07707262 -0.17577405 0.0062201023 3.497641e-42
0.046475291 -0.14458485 0.038219929 3.497641e-42
-0.066821218 0.0049497783 -0.0097799301 3.497641e-42
0.039093792 -0.15603691 0.028220057 3.497641e-42
0.019559622 -0.096378192 -0.023668766 3.497641e-42
-0.062150359 -0.18535173 -0.0036687851 3.497641e-42
0.0357548 0.19480222 -0.012557864 3.497641e-42
0.035175622 -0.16423249 0.017553449 3.497641e-42
-0.063577294 0.10564905 0.0066746473 3.497641e-42
0.0044864416 0.18537548 -0.024779797 3.497641e-42
-0.076178849 0.2151345 0.02722013 3.497641e-42
0.029903114 -0.17522898 0.0078867674 3.497641e-42
-0.070914567 0.20790848 0.020220041 3.497641e-42
-0.047495365 0.093453586 -0.0047799349 3.497641e-42
0.025314927 0.17574024 -0.031446576 3.497641e-42
0.038541555 -0.064692542 0.030970216 3.497641e-42
0.027229071 -0.1858128 -0.0017029047 3.497641e-42
-0.06922406 0.20045546 0.011220098 3.497641e-42
-0.066658318 0.20045546 0.011220098 3.497641e-42
-0.00098198652 -0.016367227 -0.029779911 3.497641e-42
0.0072510242 -0.015689969 -0.030494213 3.497641e-42
0.023144007 -0.19491044 -0.011113167 3.497641e-42
0.017611325 -0.19662872 -0.014779925 3.497641e-42
0.036128581 -0.075584337 0.018620133 3.497641e-42
-0.01493746 -0.20446181 -0.024155021 3.497641e-42
-0.05451268 0.19462526 0.0077201128 3.497641e-42
-0.023040652 0.084514588 -0.014467597 3.497641e-42
-0.016105592 0.084681362 -0.014779925 3.497641e-42
-0.051666915 -0.10239309 -0.0097799301 3.497641e-42
-0.095144987 -0.18111311 0.022220135 3.497641e-42
-0.0099374056 -0.21189407 -0.029779911 3.497641e-42
0.056104004 0.21495882 0.028291702 3.497641e-42
0.017180204 -0.20730025 -0.024779916 3.497641e-42
-0.0049621463 -0.21189407 -0.029779911 3.497641e-42
0.056335509 0.03255409 0.041077256 3.497641e-42
-0.066847861 -0.0032311976 0.0062201023 3.497641e-42
0.027604222 0.084250063 -0.014779925 3.497641e-42
-0.03484112 0.18413794 -0.003625989 3.497641e-42
0.053450465 0.023737282 0.032220125 3.497641e-42
-0.03524977 0.17669833 -0.0097799301 3.497641e-42
0.02030164 0.075501174 -0.024779916 3.497641e-42
0.04606992 0.19488332 0.0083631277 3.497641e-42
0.045776665 -0.16521017 0.039291382 3.497641e-42
-0.012811363 -0.11527744 -0.021446586 3.497641e-42
0.042652905 0.014577359 0.020420074 3.497641e-42
0.025102079 -0.10617925 -0.011779785 3.497641e-42
0.054273844 -0.16602427 0.038219929 3.497641e-42
-0.048944056 -0.014294058 -0.0047799349 3.497641e-42
0.007371068 0.06400162 -0.034395456 3.497641e-42
0.060450256 0.12799928 0.049220085 3.497641e-42
0.041101575 0.0054611862 0.011220098 3.497641e-42
0.065288305 0.12145802 0.043220162 3.497641e-42
-0.069404066 0.083679289 0.0062201023 3.497641e-42
-0.065825403 0.086235493 0.0062201023 3.497641e-42
0.042972744 0.17574093 -0.011597991 3.497641e-42
0.00032448769 0.16414976 -0.024779916 3.497641e-42
0.035627723 0.17364064 -0.014113188 3.497641e-42
-0.048944056 -0.20823978 -0.0047799349 3.497641e-42
0.025608182 0.16569632 -0.021143556 3.497641e-42
-0.061451674 0.079551667 0.00022006035 3.497641e-42
-0.0034313202 0.15589088 -0.029779911 3.497641e-42
-0.082532048 -0.10562097 0.010765672 3.497641e-42
0.048801661 -0.076684535 0.038220048 3.497641e-42
-0.054187119 0.0760445 -0.0010298491 3.497641e-42
-0.079425693 0.18485257 0.018220186 3.497641e-42
0.026521266 0.15398601 -0.030933738 3.497641e-42
0.027323008 -0.20497033 -0.0026963949 3.497641e-42
0.0089502335 -0.21099882 -0.0097799301 3.497641e-42
0.019507349 -0.20823978 -0.0047799349 3.497641e-42
0.069321632 -0.082741678 0.032220125 3.497641e-42
0.071927369 -0.082741678 0.032220125 3.497641e-42
0.016527355 -0.21099882 -0.0097799301 3.497641e-42
0.039660037 0.084105313 0.0062201023 3.497641e-42
0.03418833 -0.094459772 0.022220135 3.497641e-42
0.055959761 0.024856418 0.05422008 3.497641e-42
0.063980639 0.20552745 0.039648652 3.497641e-42
-0.024157345 0.063957125 -0.014779806 3.497641e-42
0.055865824 0.19478539 0.029220343 3.497641e-42
-0.044089794 -0.12596643 -0.0097798109 3.497641e-42
-0.069155931 0.1627169 -0.0022799969 3.497641e-42
0.050385475 0.1930669 0.027220249 3.497641e-42
0.038272262 0.074599355 -0.0041549206 3.497641e-42
-0.019398332 0.058020234 -0.019779921 3.497641e-42
0.033034265 0.066301405 -0.01102972 3.497641e-42
-0.079486907 -0.21262453 0.011220098 3.497641e-42
-0.036151826 0.15595144 -0.0097798109 3.497641e-42
-0.067152619 -0.14472835 -0.029779911 3.497641e-42
0.044322848 0.17381829 0.0095535517 3.497641e-42
0.027277648 0.055835932 -0.023529887 3.497641e-42
-0.07050693 -0.21262453 0.011220098 3.497641e-42
0.039234042 0.17186785 0.0062201023 3.497641e-42
0.041948318 -0.0078064501 0.022220135 3.497641e-42
0.054332316 -0.18517025 0.040220141 3.497641e-42
0.038193047 0.16574308 -0.00077998638 3.497641e-42
0.043264508 -0.19087882 0.032220125 3.497641e-42
0.024405003 0.045172364 -0.031780005 3.497641e-42
0.036893606 -0.19451481 0.030434489 3.497641e-42
-0.038803101 -0.034575969 -0.0047799349 3.497641e-42
0.016005278 0.044364989 -0.034779906 3.497641e-42
-0.049141228 -0.037987396 -0.0097799301 3.497641e-42
-0.0032399893 -0.14645055 -0.029779911 3.497641e-42
0.014712632 -0.14631137 -0.02978003 3.497641e-42
0.033789039 -0.20627439 0.018886805 3.497641e-42
-0.063092351 0.065635383 0.0078867674 3.497641e-42
-0.084476411 -0.12227692 0.016220093 3.497641e-42
-0.014092624 -0.04389596 -0.014779925 3.497641e-42
0.0051514506 -0.21667311 0.0062201023 3.497641e-42
0.033404529 -0.21262453 0.011220098 3.497641e-42
0.028638184 0.14508471 -0.021446586 3.497641e-42
0.049019456 0.084746182 0.027775645 3.497641e-42
0.0062321424 0.13512889 -0.02978003 3.497641e-42
-0.054995835 0.054666489 -0.0026965141 3.497641e-42
-0.07707262 -0.13231882 0.0062201023 3.497641e-42
-0.0059183836 -0.054350242 -0.024779916 3.497641e-42
0.044400454 -0.10569288 0.030970216 3.497641e-42
-0.0033037066 -0.057661667 -0.02978003 3.497641e-42
0.020061076 -0.054113507 -0.023351192 3.497641e-42
-0.043121755 0.044873357 -0.010779738 3.497641e-42
0.035182238 -0.1147752 0.021020055 3.497641e-42
0.038492978 0.064977527 0.0080951452 3.497641e-42
-0.034110487 0.044767708 -0.012279868 3.497641e-42
-0.023451209 0.044076562 -0.014113188 3.497641e-42
-0.05242461 -0.1448251 -0.0097798109 3.497641e-42
0.05593729 0.17440799 0.029720187 3.497641e-42
0.050385475 0.17359546 0.02722013 3.497641e-42
-0.051272631 0.1457155 0.00022006035 3.497641e-42
-0.045567393 0.14516002 -0.00019645691 3.497641e-42
0.027830601 0.044667155 -0.012696505 3.497641e-42
-0.0053832531 0.034476697 -0.024779797 3.497641e-42
0.046882868 -0.19592112 0.049220204 3.497641e-42
0.053195477 -0.19582692 0.049220085 3.497641e-42
0.045381665 0.15439948 0.0087202787 3.497641e-42
-0.061520994 -0.052596524 -0.0017799139 3.497641e-42
-0.031524777 0.13211855 -0.011029959 3.497641e-42
-0.025959313 0.13446677 -0.010779738 3.497641e-42
0.034672499 -0.21337368 0.030220151 3.497641e-42
-0.0046697855 -0.1617274 -0.024779916 3.497641e-42
0.058898807 -0.21172453 0.032220125 3.497641e-42
-0.0042158961 -0.16612187 -0.02978003 3.497641e-42
0.031681657 0.13754976 -0.0097799301 3.497641e-42
0.02744621 0.13396749 -0.012637019 3.497641e-42
-0.065569758 0.044058323 0.0062201023 3.497641e-42
-0.00092411041 0.12044975 -0.024779916 3.497641e-42
0.0028216839 0.12044975 -0.024779916 3.497641e-42
0.04786557 0.064836711 0.027775645 3.497641e-42
-0.0042514801 0.11505017 -0.029779911 3.497641e-42
0.028634191 -0.054604337 -0.0047799349 3.497641e-42
0.00682652 0.11469144 -0.030196667 3.497641e-42
-0.044107199 0.033986509 -0.0036687851 3.497641e-42
-0.012904823 -0.07532756 -0.023113251 3.497641e-42
0.044411361 0.054848641 0.019220114 3.497641e-42
0.058898807 -0.12443312 0.032220125 3.497641e-42
-0.073072612 0.13466319 0.011220098 3.497641e-42
-0.041564047 0.028944045 -0.0097799301 3.497641e-42
0.018803358 -0.073827967 -0.024779916 3.497641e-42
0.033259451 -0.13647628 0.020220041 3.497641e-42
0.039234042 0.044058323 0.0062201023 3.497641e-42
0.059525132 0.16461959 0.039886713 3.497641e-42
0.027843833 0.215691 -0.014779806 3.497641e-42
0.022401631 -0.07880643 -0.029779911 3.497641e-42
0.029904008 0.033176929 -0.0022799969 3.497641e-42
-0.05460149 0.12393788 -0.0002797842 3.497641e-42
-0.019398332 0.015406877 -0.019779921 3.497641e-42
-0.087021172 0.0488469 0.032220125 3.497641e-42
0.026522219 0.023898542 -0.012779832 3.497641e-42
-0.07371825 -0.065109953 0.0066047907 3.497641e-42
-0.036235094 -0.17398301 -0.014779925 3.497641e-42
0.054690182 -0.035682619 0.038219929 3.497641e-42
-0.0063345432 0.013488799 -0.024779916 3.497641e-42
0.046502233 0.14304307 0.019820094 3.497641e-42
0.062807381 -0.037141681 0.032220125 3.497641e-42
0.038269877 -0.044484556 0.027220249 3.497641e-42
0.025721669 0.016660213 -0.019779921 3.497641e-42
-0.035346925 0.11442977 -0.0097798109 3.497641e-42
1.3113022e-05 0.0057726204 -0.029779911 3.497641e-42
0.0059834123 0.0060213804 -0.029779911 3.497641e-42
0.018617868 -0.17347978 -0.014779925 3.497641e-42
0.025273383 -0.17419866 -0.013113141 3.497641e-42
-0.082052648 0.028552622 0.011220098 3.497641e-42
0.024744153 -0.17814009 -0.021446586 3.497641e-42
0.058374405 0.055196822 0.039220095 3.497641e-42
0.033244729 0.11340287 -0.01102972 3.497641e-42
-0.033503234 -0.084514469 -0.014779925 3.497641e-42
0.032704532 -0.071861684 0.00022006035 3.497641e-42
-0.071650743 0.015782297 -0.00049412251 3.497641e-42
0.028295875 -0.074650884 -0.0014464855 3.497641e-42
0.047789335 0.0437859 0.027220249 3.497641e-42
-0.00098198652 0.09507817 -0.029779911 3.497641e-42
0.035748303 0.1018869 -0.019779921 3.497641e-42
-0.064221621 0.014356822 -0.0012083054 3.497641e-42
-0.019398332 -0.092379779 -0.019779921 3.497641e-42
0.042370379 0.034851462 0.019820094 3.497641e-42
0.025939465 -0.084492818 -0.013351321 3.497641e-42
0.044133067 -0.14614739 0.032220125 3.497641e-42
-0.0066674948 -0.096302256 -0.024779916 3.497641e-42
-0.075463057 0.11722022 0.016220093 3.497641e-42
0.05629307 -0.1471028 0.032220125 3.497641e-42
-0.0082215071 0.19598088 -0.014779806 3.497641e-42
0.041101635 0.028552622 0.011220098 3.497641e-42
0.036009252 0.024374574 0.0085535049 3.497641e-42
0.023769855 -0.094501674 -0.023113251 3.497641e-42
-0.042021036 0.0039372146 -0.010613203 3.497641e-42
0.0062947869 -0.10460389 -0.03324151 3.497641e-42
-0.056549788 -0.18542263 -0.0047798157 3.497641e-42
0.015395641 -0.10480115 -0.033113122 3.497641e-42
0.054208517 0.13509601 0.032220125 3.497641e-42
0.034338534 0.014101714 -0.0028567314 3.497641e-42
0.027953982 0.18571153 -0.022904992 3.497641e-42
-0.021677136 -0.0043046176 -0.019779921 3.497641e-42
0.031681657 0.0062126219 -0.0097799301 3.497641e-42
-0.080140054 -0.08707425 0.0062201023 3.497641e-42
-0.013598204 -0.0048162937 -0.020613194 3.497641e-42
0.026580811 0.0053296685 -0.012279749 3.497641e-42
-0.074516535 -0.086307377 0.0062201023 3.497641e-42
-0.041770697 -0.19486739 -0.014779806 3.497641e-42
0.04716599 -0.05476597 0.038219929 3.497641e-42
0.052727342 -0.05574742 0.038219929 3.497641e-42
-0.033835053 -0.19457707 -0.014779806 3.497641e-42
-0.0029044151 -0.0082375407 -0.023113251 3.497641e-42
0.016710997 0.17598817 -0.033946753 3.497641e-42
-0.065380633 0.20508122 0.017077327 3.497641e-42
-0.042574346 0.095117748 -0.0097798109 3.497641e-42
0.026795983 -0.0048255026 -0.019779921 3.497641e-42
0.043607533 0.11359194 0.010720134 3.497641e-42
-0.062810719 -0.095090732 -0.0022797585 3.497641e-42
0.039234042 0.10924119 0.0062201023 3.497641e-42
0.024178505 -0.012529194 -0.029779911 3.497641e-42
0.042883515 0.10245451 0.00022006035 3.497641e-42
-0.048954546 0.19487354 0.0062201023 3.497641e-42
-0.0099374056 -0.20816264 -0.029779911 3.497641e-42
0.028242409 -0.086818621 0.0062201023 3.497641e-42
0.034737825 -0.086078808 0.0078868866 3.497641e-42
-0.034131467 -0.1043988 -0.0127213 3.497641e-42
-0.089749753 -0.18696739 0.011220098 3.497641e-42
0.048148274 0.20477834 0.016220212 3.497641e-42
0.025134146 -0.095480725 -0.00200212 3.497641e-42
-0.016608834 -0.10805883 -0.014779925 3.497641e-42
-0.027141035 0.18522918 -0.0047799349 3.497641e-42
-0.062299967 -0.0061219633 0.00022006035 3.497641e-42
0.053930223 0.20173833 0.011220098 3.497641e-42
1.3113022e-05 0.074182123 -0.029779911 3.497641e-42
-0.023042142 0.18259165 -0.0097798109 3.497641e-42
0.025303841 0.074596733 -0.029779911 3.497641e-42
-0.0059183836 -0.11553025 -0.024779916 3.497641e-42
0.043264508 -0.1665588 0.032220125 3.497641e-42
-0.014685154 0.17585298 -0.014154911 3.497641e-42
-0.042826891 -0.015255958 -0.0097798109 3.497641e-42
0.038508832 -0.17425834 0.027720094 3.497641e-42
0.016727269 0.064138323 -0.039779902 3.497641e-42
0.019254804 -0.11523342 -0.022279859 3.497641e-42
0.037521541 0.0042021573 0.0084929466 3.497641e-42
-0.07266897 -0.20307586 -0.002904892 3.497641e-42
-0.063539088 -0.20280561 -0.0031131506 3.497641e-42
0.065430582 -0.17363703 0.028648734 3.497641e-42
0.027424514 0.17375451 -0.014779925 3.497641e-42
-0.055252492 -0.20651072 -0.0039466619 3.497641e-42
0.015767038 -0.12581018 -0.032507062 3.497641e-42
-0.023438513 -0.01855433 -0.014779925 3.497641e-42
-0.02023387 -0.025953114 -0.019779921 3.497641e-42
-0.074238777 -0.10522762 0.0083034039 3.497641e-42
0.032081962 -0.016557246 -0.011446476 3.497641e-42
0.055344462 -0.075703099 0.038219929 3.497641e-42
-0.046599984 0.075018734 -0.0038707256 3.497641e-42
-0.073921263 0.18468794 0.01688683 3.497641e-42
-0.06838119 0.1835326 0.016220093 3.497641e-42
0.065726399 0.2163755 0.049220085 3.497641e-42
0.03870517 -0.086015821 0.028648853 3.497641e-42
-0.0028891563 -0.034443885 -0.029779911 3.497641e-42
-0.061935186 -0.11573884 -0.0014466047 3.497641e-42
0.015741467 -0.036494225 -0.033113241 3.497641e-42
-0.054846287 0.17412117 0.0078868866 3.497641e-42
-0.048954546 0.17442402 0.0062201023 3.497641e-42
0.03344357 -0.10421547 0.0087201595 3.497641e-42
0.047929287 0.011862129 0.038220048 3.497641e-42
-0.073145747 -0.015476763 0.0090771914 3.497641e-42
0.054098845 0.014565408 0.038636684 3.497641e-42
-0.035784125 0.16627297 -0.00089097023 3.497641e-42
0.051081657 0.007155478 0.032220125 3.497641e-42
0.044082999 0.0049448907 0.029492855 3.497641e-42
0.029904008 -0.11541311 -0.0022799969 3.497641e-42
0.040000677 0.0022468865 0.02722013 3.497641e-42
-0.055110395 -0.025895283 -0.0002797842 3.497641e-42
-0.023158312 -0.13499309 -0.019779921 3.497641e-42
0.024490774 -0.12534015 -0.011724353 3.497641e-42
0.061254978 0.11619928 0.05422008 3.497641e-42
-0.063306928 -0.21269596 0.0095535517 3.497641e-42
-0.05490154 -0.21318054 0.01022017 3.497641e-42
-0.024908841 0.15415609 -0.01311326 3.497641e-42
-0.047676444 -0.033308342 -0.0047799349 3.497641e-42
0.034863532 -0.01548779 0.0089979172 3.497641e-42
-0.035069406 -0.035461679 -0.0097798109 3.497641e-42
0.019882262 -0.13630867 -0.023113251 3.497641e-42
-0.014385045 0.14951357 -0.019779921 3.497641e-42
0.0067744255 -0.14608943 -0.031030059 3.497641e-42
-0.0046321154 0.14499393 -0.024155021 3.497641e-42
-0.084476411 -0.11841406 0.016220093 3.497641e-42
0.035789013 0.15453985 -0.01330936 3.497641e-42
0.033090234 0.14731389 -0.021446586 3.497641e-42
0.030563116 -0.21273169 0.0087201595 3.497641e-42
0.016228318 -0.21539502 0.0062201023 3.497641e-42
-0.081596255 -0.12509044 0.0092202425 3.497641e-42
0.048001885 -0.094188347 0.039469957 3.497641e-42
-0.011562049 -0.045410648 -0.020494223 3.497641e-42
0.055307329 -0.094750181 0.040886641 3.497641e-42
0.016303122 0.13469788 -0.032087684 3.497641e-42
-0.047857523 0.054700673 -0.0047799349 3.497641e-42
0.023550868 0.13474196 -0.031030059 3.497641e-42
0.038054526 -0.1057184 0.027775645 3.497641e-42
0.023214996 -0.047259778 -0.019779921 3.497641e-42
-0.09519738 0.087108791 0.049220085 3.497641e-42
-0.072444379 -0.13669673 -0.0017799139 3.497641e-42
-0.063587368 -0.13569844 -0.0027797222 3.497641e-42
0.0062321424 -0.056417897 -0.02978003 3.497641e-42
0.059270203 0.1876469 0.038220048 3.497641e-42
0.061887383 0.1876469 0.038220048 3.497641e-42
-0.070499599 0.15379193 0.0062202215 3.497641e-42
0.015933812 -0.056666642 -0.029779911 3.497641e-42
-0.071872652 -0.14280453 -0.0097799301 3.497641e-42
-0.063161492 0.15407425 0.0065324306 3.497641e-42
-0.056623101 0.15440056 0.0062201023 3.497641e-42
0.062807381 0.18173832 0.032220125 3.497641e-42
0.036239922 0.054410875 -0.0047798157 3.497641e-42
0.03397733 -0.12481229 0.0097917318 3.497641e-42
